509 509 509 509 508 508 507 507 506 506 506 506 505 504 503 501 500 499 498 496 495 494 493 492 491 491 492 492 493 493 493 493 493 492 491 490 489 488 487 486 485 485 484 484 483 483 482 481 480 479 478 476 475 475 477 478 479 477 474 471 471 472 474 475 476 477 477 477 478 478 479 481 483 484 485 485 484 481 478 477 479 481 482 481 480 479 479 479 479 480 481 483 485 486 487 487 488 489 489 490 490 490 490 490 490 490 489 488 487 486 485 484 484 483 483 483 482 481 481 480 479 477 476 475 473 472 470 469 468 467 466 466 465 464 464 463 462 461 459 458 457 456 456 457 458 460 460 460 459 458 456 454 452 449 447 444 442 440 438 437 436 437 438 439 441 442 444 445 445 445 446 446 446 445 444 442 441 443 447 450 453 453 452 450 448 446 444 442 441 438 435 433 433 433 432 429 426 422 418 416 412 408 401 396 393 392 389 388 387 387 386 385 385 388 395 405 415 421 421 418 419 423 425 427 428 429 429 425 414 399 393 401 411 419 425 431 435 439 442 445 448 451 453 454 455 455 455 456 456 457 457 458 458 459 459 460 460 460 460 460 460 461 461 461 461 461 461 461 460 460 459 458 457 457 456 456 456 455 455 454 454 454 454 454 454 453 452 451 449 446 444 442 440 439 439 438 437 435 433 432 431 431 430 429 428 426 425 424 423 423 423 423 423 424 425 426 426 425 423 421 419 418 418 418 417 417 416 414 410 401 387 369 350 335 326 326 336 352 369 380 386 392 398 402 406 410 415 418 420 421 421 421 422 422 422 421 418 416 413 410 405 400 396 392 389 385 382 379 376 373 371 369 367 365 364 364 364 365 366 368 371 375 379 382 384 385 386 386 386 387 388 388 389 389 389 388 387 386 385 383 381 379 378 379 380 382 382 379 371 360 354 357 369 386 405 419 426 430 432 434 434 434 433 430 426 420 410 398 394 399 405 408 410 415 422 428 431 432 432 433 435 438 441 442 442 442 442 442 443 444 446 447 449 451 453 456 458 460 462 463 465 467 468 469 470 471 472 473 473 474 475 475 477 478 479 478 477 476 473 470 468 465 463 460 458 456 455 455 455 455 455 456 457 457 456 455 453 451 449 447
508 508 508 507 507 507 507 506 506 505 505 504 504 503 502 500 499 498 497 496 495 493 492 490 490 490 491 491 491 491 490 491 491 490 490 489 488 487 486 485 484 483 482 482 482 482 482 481 480 479 477 475 474 473 473 474 474 473 471 469 469 470 471 472 472 473 473 473 473 473 475 477 479 480 481 481 479 477 475 477 480 481 481 480 478 477 476 477 477 478 480 482 484 485 486 486 487 488 488 489 489 489 489 489 489 489 489 488 487 486 485 484 483 482 482 482 482 481 481 480 479 477 476 475 474 473 472 471 469 468 468 467 466 466 465 464 463 461 460 459 457 457 456 457 458 459 460 459 458 457 456 454 452 450 447 444 442 440 439 438 437 437 439 440 442 443 444 445 445 445 446 446 446 446 445 443 442 444 447 450 453 454 453 451 449 447 445 443 442 440 438 437 436 435 433 431 427 424 420 418 414 409 400 394 392 392 391 390 388 387 386 385 385 387 394 403 411 415 412 406 405 411 418 423 426 427 427 423 413 398 393 403 416 424 430 435 439 442 444 447 449 452 453 455 455 455 456 456 457 457 457 458 458 458 459 459 459 460 460 460 460 460 460 461 461 461 461 460 460 459 458 457 456 456 456 456 456 456 456 455 455 455 456 455 455 454 453 451 449 447 444 442 441 440 440 439 438 436 435 434 433 433 432 431 429 427 425 424 424 423 424 424 425 426 427 427 427 426 424 423 421 421 420 419 419 419 419 418 416 411 401 387 371 354 338 327 326 337 350 360 368 378 387 393 398 405 411 415 417 417 418 418 419 420 421 420 419 417 415 412 408 403 399 395 391 388 384 381 378 375 373 370 368 365 363 362 362 363 364 367 370 373 377 380 382 384 385 385 386 387 388 388 389 389 389 389 389 388 387 385 383 380 378 377 377 379 380 379 372 362 355 356 366 382 400 414 421 425 428 430 430 430 428 425 421 415 404 394 392 400 408 411 414 419 425 431 434 435 435 435 436 439 442 445 446 447 447 447 446 446 447 449 451 453 455 456 458 459 460 461 462 464 466 467 468 469 470 471 472 472 473 474 476 477 478 478 477 476 474 472 470 467 464 461 458 456 455 454 453 453 453 453 454 454 454 453 451 450 448 447
507 507 507 506 506 506 506 506 505 504 503 503 502 501 500 499 498 497 496 495 494 493 491 490 489 489 490 490 490 489 489 489 489 488 488 487 486 485 485 484 483 481 480 480 481 481 482 481 481 479 477 475 473 472 471 470 470 470 469 468 468 467 467 468 468 468 468 468 468 469 471 473 475 476 477 476 475 472 473 476 480 480 480 478 476 474 474 475 475 476 478 480 482 483 484 485 486 486 487 487 488 488 488 488 488 488 488 488 487 486 485 484 482 481 480 480 481 481 480 480 479 477 476 475 475 474 472 471 470 469 469 468 467 466 465 465 463 462 461 459 458 457 456 457 458 459 459 459 458 457 456 454 452 450 447 445 443 441 439 438 437 438 439 441 442 444 444 445 445 446 446 446 447 447 446 444 444 445 447 450 453 454 454 453 451 449 447 445 443 441 440 439 438 437 435 432 429 427 424 422 418 412 402 394 392 393 393 391 388 386 385 385 385 386 390 396 401 402 398 393 392 399 409 418 422 424 423 418 406 394 395 409 423 430 434 437 440 442 445 447 449 451 453 455 455 455 456 456 456 457 457 457 458 458 458 458 458 459 459 459 459 459 460 461 461 461 460 460 459 458 457 456 455 455 455 456 456 456 456 457 457 457 456 456 455 454 452 450 448 446 444 442 441 441 440 440 439 437 436 436 435 434 433 432 430 428 426 425 424 424 425 426 427 428 428 428 428 427 426 424 423 422 422 421 421 421 421 419 417 411 399 387 376 366 353 337 327 327 334 342 352 363 372 381 390 400 407 411 413 414 415 416 417 418 419 419 419 418 416 414 410 406 402 397 393 389 386 383 380 378 375 372 369 366 364 362 361 361 363 365 368 370 373 376 379 381 382 383 384 385 386 387 388 388 389 389 390 390 389 387 385 383 381 379 377 376 375 375 370 362 355 355 363 378 395 408 416 420 423 425 425 424 422 419 415 408 398 389 390 400 408 412 415 420 427 432 435 437 438 438 439 440 443 446 448 450 451 452 451 451 452 454 456 458 459 460 462 463 463 462 462 463 465 467 468 469 469 470 471 472 473 474 475 476 477 478 478 477 475 474 471 468 465 462 459 457 455 454 453 452 451 451 451 451 451 450 449 448 447 446
506 506 506 506 505 505 504 504 504 503 502 501 500 499 499 498 497 496 495 494 493 492 491 490 488 488 488 488 488 488 487 487 487 486 486 485 484 484 483 483 482 480 479 479 480 480 480 481 480 479 478 476 474 472 470 469 469 468 468 467 467 466 466 465 465 465 465 464 464 465 466 468 470 471 472 472 471 469 471 475 479 479 478 475 473 472 473 473 474 475 476 478 479 481 482 483 484 485 486 486 486 487 487 487 487 487 487 487 487 486 485 484 482 480 479 479 479 480 480 479 478 477 476 475 474 473 472 472 471 470 469 468 468 467 466 465 464 462 461 460 459 458 457 457 457 458 458 458 457 457 456 454 452 450 448 445 443 441 440 439 438 438 439 441 442 444 444 445 445 446 446 446 447 447 447 446 445 445 447 450 452 453 454 454 452 450 448 446 444 442 441 440 439 438 436 433 431 429 428 425 422 416 406 398 395 395 394 391 388 386 386 386 386 386 387 389 390 390 388 386 386 390 398 408 416 420 419 411 398 390 398 414 425 431 434 437 439 442 444 446 448 450 453 454 455 455 455 456 456 456 457 457 457 458 457 457 457 458 458 458 458 459 460 461 461 460 460 460 459 458 456 455 454 454 454 455 456 456 457 458 458 457 457 456 455 453 451 450 448 446 444 442 441 440 440 440 439 438 437 437 436 435 434 433 431 428 427 426 425 425 426 427 428 429 429 429 429 428 427 426 425 424 423 423 422 422 422 420 414 402 384 367 359 359 359 349 336 326 326 334 346 356 364 374 385 395 401 404 407 410 412 413 415 416 417 418 418 417 416 414 411 407 403 399 394 391 387 384 382 380 377 373 370 367 365 362 361 360 361 363 365 367 370 374 376 378 379 380 381 383 384 385 386 386 387 388 389 390 390 389 387 385 383 381 379 376 373 370 366 360 353 351 358 372 389 402 410 414 418 420 420 418 415 411 407 401 392 385 387 396 404 409 414 420 426 432 436 438 440 441 441 443 445 447 450 452 454 455 455 456 457 459 461 463 464 465 466 467 467 466 465 466 467 467 468 469 470 471 471 472 473 474 475 476 477 477 478 477 476 475 472 470 467 463 460 458 456 454 453 452 451 450 450 449 449 448 447 447 446 445
505 505 505 505 504 503 502 502 503 502 502 501 499 498 498 497 495 494 494 493 492 491 491 490 488 487 486 486 487 487 486 486 485 484 484 483 482 482 482 481 480 480 479 479 479 479 479 480 480 479 478 476 474 472 471 470 469 469 468 468 467 466 466 466 466 465 464 463 462 462 463 464 465 466 467 468 467 466 469 474 477 476 474 472 471 471 472 473 473 474 475 476 478 479 480 482 483 484 485 485 485 485 486 486 486 487 487 486 486 485 484 483 482 480 479 478 478 479 479 479 478 477 475 474 473 472 472 471 471 470 469 469 468 467 466 465 464 463 462 460 459 458 457 457 457 457 456 456 456 456 455 454 452 449 447 445 443 442 440 439 439 439 439 441 442 443 444 445 445 446 446 446 447 447 448 447 447 446 447 449 451 453 453 454 453 451 449 447 445 444 443 442 441 439 436 434 432 431 430 428 425 420 411 402 398 396 394 391 388 387 386 387 386 385 386 386 386 386 386 386 386 386 389 396 406 414 415 407 394 388 400 415 426 430 433 435 438 440 442 444 446 448 451 453 454 455 455 455 456 456 456 456 457 457 457 457 456 457 457 457 458 458 460 460 460 459 459 459 458 457 455 454 453 453 454 455 456 457 458 459 459 458 457 456 455 453 451 449 448 446 444 443 441 440 439 438 438 438 437 437 436 436 435 434 432 429 428 427 427 427 427 428 429 429 429 429 429 429 428 427 426 425 425 424 422 422 422 420 411 390 362 342 336 342 352 354 345 332 326 332 346 359 370 379 388 395 399 402 404 407 409 411 413 415 416 416 416 416 416 414 411 407 403 399 396 392 389 386 384 381 378 374 371 368 366 364 361 360 360 361 362 365 368 371 373 374 375 377 378 380 381 382 383 384 386 387 388 389 390 391 390 388 386 384 382 379 374 369 363 357 351 349 354 367 384 397 404 409 413 415 415 412 408 404 399 394 386 381 383 390 398 403 410 416 423 430 435 438 441 442 444 445 446 448 450 453 455 456 457 459 460 463 465 467 468 469 469 470 470 470 469 469 469 469 470 471 471 471 472 472 473 474 475 476 477 478 478 478 477 475 474 472 469 466 462 460 457 456 454 453 451 450 449 449 448 447 446 446 445 444
503 504 504 503 503 502 500 500 501 501 501 500 499 498 497 496 495 494 493 492 491 490 490 489 488 487 485 485 485 486 485 485 484 483 482 481 481 480 480 480 479 479 478 478 478 478 478 479 479 479 477 476 474 472 471 471 471 471 470 469 469 469 470 470 470 469 467 464 462 461 461 461 461 462 463 464 464 465 468 472 473 472 470 469 469 471 472 473 474 474 475 476 477 478 479 481 482 483 483 483 484 484 484 485 485 486 486 485 485 484 483 482 481 479 478 477 477 478 478 478 478 477 475 474 472 471 470 470 469 469 469 468 467 467 466 465 464 463 462 461 460 459 458 457 456 455 455 455 455 455 454 453 451 449 447 445 443 442 441 440 439 439 440 441 442 443 444 445 445 446 446 446 447 447 448 448 448 447 448 449 451 452 453 453 452 452 450 448 447 445 444 443 442 440 437 435 433 432 431 429 427 423 416 406 399 396 392 390 388 387 387 387 386 385 386 387 387 387 387 387 386 386 386 388 395 402 406 401 392 387 398 413 423 427 429 432 435 436 438 440 442 445 447 450 452 453 454 455 455 455 456 456 456 456 456 456 456 456 456 456 457 458 459 460 460 459 458 457 457 456 455 453 453 453 453 455 456 457 458 459 459 458 458 456 455 453 452 450 449 447 446 444 442 440 438 437 437 437 437 437 436 436 435 434 433 431 429 428 428 428 428 429 429 429 429 429 429 429 429 428 428 427 426 425 424 423 422 419 407 378 345 328 324 328 338 349 349 338 328 330 342 359 377 390 398 401 403 404 405 407 408 410 411 413 414 414 415 415 415 413 411 407 404 401 397 394 391 388 385 381 378 375 371 369 367 365 363 361 360 360 361 363 365 368 369 370 372 374 376 377 378 379 380 382 384 385 386 387 389 390 391 390 389 387 385 383 378 371 363 356 350 347 352 365 381 392 400 404 409 411 410 406 401 396 390 385 380 379 383 389 395 401 407 414 421 428 433 438 441 443 445 446 448 450 451 453 455 457 459 460 462 464 466 468 469 470 471 471 472 472 472 471 471 471 472 472 473 473 473 473 473 474 475 476 477 478 479 478 477 476 475 474 471 468 465 462 459 457 455 454 452 451 450 449 448 447 446 446 445 444
500 501 501 501 501 501 499 498 498 498 498 498 498 497 496 495 494 493 492 491 490 489 489 488 488 486 485 484 484 484 484 484 483 481 481 480 479 479 478 478 478 478 477 477 477 477 477 478 478 478 477 475 474 472 472 472 473 473 473 472 471 472 474 475 475 474 471 468 465 462 460 460 460 460 460 461 461 463 467 469 469 467 466 467 469 471 473 474 474 475 475 476 477 478 479 480 481 482 482 482 483 483 483 484 484 485 485 484 484 483 482 480 479 478 477 477 476 477 477 477 477 476 475 474 472 471 469 469 468 467 467 467 466 466 465 465 464 463 462 461 460 459 458 457 456 455 454 454 453 453 453 452 450 448 446 444 443 442 441 440 440 440 440 441 442 443 444 445 445 446 446 446 447 447 447 447 448 448 448 449 451 453 453 452 451 452 451 450 448 447 445 444 442 441 438 436 434 432 431 429 426 422 417 407 399 394 392 389 387 387 387 387 386 386 386 387 388 389 388 387 386 386 386 386 388 391 394 393 389 387 397 410 418 421 423 427 429 431 432 434 437 439 442 445 448 451 452 453 454 455 455 455 456 455 455 455 455 455 455 455 456 458 459 460 459 458 457 456 455 454 454 453 452 452 453 454 455 457 459 459 459 459 458 457 456 454 453 452 451 449 447 445 443 441 439 437 436 435 435 436 436 435 435 434 434 432 430 429 428 428 429 429 429 429 429 429 428 429 429 429 429 428 427 426 425 424 422 418 404 371 338 327 326 324 328 341 347 340 328 326 335 352 376 395 404 407 407 407 408 408 408 409 410 411 412 413 413 413 413 412 410 407 405 402 399 395 392 390 386 382 379 376 372 369 367 366 364 362 361 360 360 361 362 364 365 367 369 371 373 374 375 376 378 380 382 383 384 385 386 389 391 392 391 390 388 385 380 373 365 358 351 347 351 363 378 388 396 401 406 408 406 401 395 387 380 378 379 384 390 396 400 404 409 415 421 427 432 437 440 443 445 447 449 450 452 453 455 457 459 460 462 464 466 468 469 470 471 472 473 473 473 473 473 473 474 474 474 474 474 474 474 475 476 477 478 479 479 479 478 478 477 475 473 470 467 463 460 458 456 455 453 452 451 450 449 448 447 447 446 446
497 497 497 498 499 499 497 495 495 495 496 496 496 495 495 494 494 492 491 490 489 488 488 487 487 486 485 484 483 482 482 482 481 480 479 479 478 477 477 477 476 476 476 476 476 476 476 477 477 477 476 475 474 473 473 473 474 475 475 474 474 475 476 478 479 478 476 473 469 466 463 462 460 459 458 458 459 461 464 466 466 464 464 467 470 472 474 475 475 475 476 476 477 478 478 479 480 480 481 481 481 482 482 483 483 484 484 483 483 481 480 479 478 477 476 476 476 476 476 476 476 476 475 474 472 471 469 468 467 466 465 465 465 465 464 464 464 463 462 461 460 459 458 457 456 455 454 453 452 451 451 450 449 447 445 443 442 441 441 441 441 441 441 441 442 443 444 444 445 445 446 446 447 447 447 447 447 448 449 450 451 453 453 451 450 451 451 451 449 448 447 445 443 442 439 437 434 432 429 427 422 418 413 403 395 391 390 387 386 387 389 388 386 387 387 387 390 393 391 388 386 387 387 387 386 386 387 387 387 388 396 406 411 412 415 418 420 420 420 423 427 430 434 438 443 447 450 451 453 454 454 455 455 455 454 454 454 454 454 454 455 457 458 459 459 458 457 456 454 453 452 452 451 451 452 453 455 457 458 459 459 459 459 458 457 456 455 454 453 451 449 447 445 442 440 438 436 434 434 434 434 435 434 434 434 433 430 429 428 428 429 429 429 429 429 429 428 428 428 429 429 429 428 428 427 426 424 419 402 369 335 327 329 324 324 333 341 338 329 323 329 347 372 394 407 410 410 410 410 409 409 409 409 410 411 412 412 412 412 411 410 408 405 402 399 396 393 390 387 383 379 376 373 370 368 367 365 363 362 361 360 360 360 361 362 364 366 368 370 371 372 373 376 378 380 381 381 382 383 386 389 392 393 392 390 387 382 375 367 360 353 348 350 360 374 384 392 399 404 406 404 398 388 378 374 378 385 393 402 408 410 413 416 420 423 427 431 435 439 442 444 446 449 450 452 453 455 456 458 460 461 463 465 467 468 470 471 472 473 474 474 474 475 475 475 475 476 476 476 476 476 477 477 477 478 479 479 479 479 479 478 477 474 471 468 464 461 459 457 456 455 454 452 451 450 449 449 449 448 448
494 495 495 495 496 496 495 493 492 493 494 494 494 493 493 492 492 491 490 489 488 487 487 486 486 485 484 483 482 481 480 480 479 479 478 478 477 476 476 475 475 475 475 475 474 474 475 475 476 476 476 475 474 474 474 474 475 476 476 476 476 477 478 480 480 480 478 476 473 471 469 467 464 461 458 456 457 459 462 463 462 461 462 467 472 474 476 476 476 476 476 477 477 478 478 479 479 480 480 480 480 480 481 481 482 482 482 482 481 480 479 478 477 476 475 475 475 475 476 476 475 475 474 474 472 471 470 468 466 465 464 463 463 463 463 462 462 462 462 461 461 460 459 458 457 456 455 453 452 450 449 448 447 446 444 443 442 441 441 441 441 442 442 441 442 442 443 444 445 445 446 446 446 446 446 446 447 448 449 450 451 452 452 451 450 450 450 451 450 449 448 446 444 442 441 438 435 431 427 422 417 411 404 397 392 390 388 386 386 388 389 388 387 388 388 389 394 400 400 394 389 387 388 388 388 388 388 387 386 388 393 398 399 400 402 404 406 406 408 413 419 425 429 434 439 444 447 449 451 453 454 454 454 454 453 453 453 453 453 453 454 456 457 459 459 458 456 455 454 452 451 450 450 450 451 452 454 456 458 459 459 459 459 459 458 457 456 456 454 452 451 449 447 444 441 439 437 434 432 431 432 433 434 434 433 432 430 429 428 428 429 429 430 430 429 429 428 428 428 428 428 429 429 429 428 427 425 419 401 367 333 326 330 327 323 327 334 334 327 323 330 350 376 397 409 413 413 412 412 411 409 409 409 409 410 410 411 411 411 411 410 408 406 402 399 396 393 390 387 383 379 376 374 372 370 368 366 365 364 362 361 360 360 360 360 361 363 365 367 368 370 371 374 376 377 378 379 380 381 384 387 390 393 393 392 389 384 377 370 362 354 349 349 358 369 380 389 396 401 403 402 395 383 374 375 383 393 403 412 418 420 422 424 426 427 429 432 435 438 441 443 446 448 450 451 452 454 455 457 459 460 461 463 464 466 468 469 470 472 473 474 475 475 475 476 476 476 477 477 477 478 478 478 478 478 479 479 479 479 479 479 477 475 471 468 465 462 461 459 458 457 455 453 452 451 451 451 451 450 449
492 492 492 492 493 494 492 491 490 491 492 492 492 491 491 490 489 489 488 488 487 486 486 485 484 484 483 482 482 481 480 480 479 478 478 477 476 476 475 474 474 473 473 473 473 472 473 474 475 476 476 476 476 476 476 476 476 476 477 478 479 479 480 481 481 481 480 478 476 474 474 472 469 465 461 458 456 457 459 460 459 458 461 467 472 476 477 478 477 477 477 477 478 478 478 478 479 479 479 479 479 479 479 480 480 481 481 480 480 479 479 478 476 475 474 474 474 474 475 475 475 474 474 473 472 471 470 469 467 465 463 462 461 461 461 461 461 461 461 461 460 460 459 459 458 456 455 454 452 450 449 447 446 444 443 443 442 441 441 441 442 442 442 442 442 443 443 444 445 445 446 446 446 446 446 446 447 448 449 450 451 452 452 451 450 450 450 450 450 450 449 447 445 443 442 440 437 432 427 421 414 407 399 393 391 390 388 387 387 388 390 388 388 388 390 391 396 406 411 404 395 390 389 389 390 390 389 387 385 386 388 390 390 390 391 392 395 399 404 412 420 426 431 435 439 443 446 448 451 452 453 454 453 453 453 453 452 452 452 452 453 455 457 458 458 457 456 455 453 452 450 449 448 449 450 452 454 456 457 458 459 459 459 459 459 458 457 456 455 454 452 451 449 446 443 440 438 435 432 429 429 430 432 432 432 430 430 428 428 428 429 429 429 430 430 429 429 428 428 427 428 428 429 429 429 429 426 418 399 366 331 321 330 334 326 323 325 326 324 325 337 361 387 406 415 416 415 414 414 412 411 409 409 409 409 409 409 409 410 410 410 408 406 403 400 397 393 390 386 383 380 378 375 373 371 369 368 367 365 364 362 361 360 360 359 360 361 362 364 366 368 370 372 374 375 376 377 378 379 382 385 389 392 394 393 390 385 379 373 365 357 350 349 355 367 377 386 392 397 400 398 391 379 372 375 386 396 408 418 424 426 428 430 431 431 432 434 436 438 440 443 445 447 449 450 451 453 454 456 457 458 459 460 461 463 464 466 468 469 471 473 474 475 475 476 476 476 477 477 477 478 478 478 478 478 479 479 479 479 479 479 477 474 471 468 466 465 463 462 460 458 456 454 453 453 453 453 452 452 451
490 489 489 490 490 491 490 489 488 489 490 490 490 490 489 488 487 486 486 486 486 485 485 484 484 483 483 482 482 482 482 481 480 479 478 478 477 476 475 474 473 472 471 471 471 471 471 472 474 475 476 477 477 478 478 478 477 477 478 479 480 481 482 482 482 481 480 478 477 476 476 475 473 469 465 461 457 456 456 457 456 457 460 467 473 477 479 479 479 478 478 478 478 478 478 478 478 478 478 478 478 478 478 478 479 479 479 479 479 478 478 477 476 475 474 473 473 473 474 474 474 473 472 472 471 470 470 469 467 465 464 462 460 460 459 459 459 460 459 459 460 460 460 459 458 457 456 454 453 451 449 447 445 444 443 442 442 442 441 441 441 441 442 442 443 443 444 444 445 445 445 445 445 445 445 445 446 448 449 450 451 452 452 451 450 450 450 450 450 450 449 448 446 444 443 441 439 435 430 424 418 410 402 394 390 390 389 388 387 389 391 389 388 388 391 393 397 407 415 413 404 395 392 392 392 391 389 387 386 386 386 386 386 386 386 388 393 401 410 418 425 431 436 439 442 444 446 448 450 452 453 453 453 453 452 452 452 451 451 451 453 454 456 457 457 457 456 455 453 451 449 448 447 447 449 451 453 455 456 458 459 459 459 459 459 458 457 457 456 455 454 452 450 447 444 442 438 435 432 428 427 427 429 429 429 428 428 428 427 428 428 429 429 429 430 430 429 429 428 427 427 427 428 428 429 429 427 418 398 364 329 316 328 343 339 330 328 329 330 335 350 374 398 414 421 421 420 418 417 414 412 410 409 409 408 408 407 408 408 409 408 408 406 403 400 397 394 390 387 384 381 379 377 375 373 371 369 368 367 365 364 362 361 360 359 359 360 360 361 363 366 368 370 371 372 373 374 376 378 380 384 387 391 393 393 391 387 382 377 370 361 352 348 353 363 374 381 387 391 393 391 383 373 368 374 386 397 410 420 426 429 431 432 433 434 435 435 437 439 441 442 444 446 447 448 449 450 452 453 455 456 457 458 459 460 461 463 465 466 468 471 473 474 475 475 475 476 476 476 477 477 477 477 477 478 478 479 479 479 479 479 477 474 472 470 469 467 466 464 462 460 458 456 455 454 455 455 455 454 453
489 488 487 487 488 488 487 487 486 487 488 488 488 488 487 486 485 484 484 484 484 484 484 483 483 483 483 483 484 484 484 483 483 482 480 479 479 478 477 475 474 473 471 470 470 470 470 471 473 474 476 478 479 480 480 480 479 479 479 480 481 483 483 483 483 482 480 478 477 476 476 475 474 472 468 464 459 456 455 455 455 457 461 468 474 478 479 479 479 479 479 479 479 479 478 478 478 478 478 478 478 478 478 478 478 478 478 478 477 477 477 476 476 475 473 472 472 472 473 473 473 472 471 470 470 469 469 468 467 466 464 462 460 459 458 458 458 458 458 459 459 459 460 459 458 457 456 455 453 452 450 447 445 443 442 442 441 441 441 441 441 441 442 442 443 443 444 444 444 444 444 444 444 444 444 445 446 447 449 450 450 451 452 451 450 450 450 450 450 450 449 448 447 445 444 442 440 437 433 429 423 415 404 393 389 390 390 389 387 388 390 389 387 388 391 394 397 407 417 420 413 404 397 394 393 391 389 388 387 387 387 386 386 386 387 388 392 399 409 419 427 433 437 441 444 446 448 449 451 452 452 452 452 452 452 452 451 451 450 451 452 454 455 456 456 456 456 455 453 451 449 447 446 446 448 450 452 454 456 457 458 458 459 459 459 458 457 456 455 455 453 452 450 447 445 442 439 436 432 428 425 424 425 426 426 426 426 426 426 427 427 428 429 429 429 430 430 429 429 428 427 427 427 427 428 429 427 418 398 365 329 312 326 349 359 355 351 351 354 358 370 388 407 420 425 426 425 423 420 417 414 412 410 409 407 406 405 406 406 406 406 406 405 403 400 397 394 391 388 386 383 380 378 376 374 372 370 369 367 366 364 363 361 360 359 359 359 359 360 362 364 366 368 369 370 371 372 374 376 379 382 386 389 392 393 392 389 385 381 374 365 356 349 350 358 367 373 378 382 383 380 373 365 365 373 386 397 410 420 425 427 428 429 431 432 434 435 437 439 441 442 443 445 445 445 446 448 449 451 452 453 454 455 456 458 459 460 462 463 465 468 470 472 473 474 474 474 475 475 476 476 476 476 477 477 478 478 479 479 479 479 477 475 474 472 471 470 468 466 463 461 459 458 457 457 457 457 457 456 455
490 488 486 486 485 485 485 485 485 485 486 487 487 486 486 485 484 484 483 483 483 483 483 482 482 482 483 484 484 485 485 484 484 484 483 481 480 479 478 477 476 474 473 471 470 470 470 470 472 475 477 479 481 481 481 481 481 481 481 481 483 484 485 485 484 482 480 478 477 475 475 474 473 472 469 465 461 457 455 455 455 457 463 470 475 478 479 479 480 479 479 479 479 479 478 477 477 477 477 477 477 477 477 477 477 477 477 477 476 476 475 475 475 474 473 472 471 471 472 472 472 471 470 469 468 468 467 467 466 465 464 462 460 459 458 457 457 457 458 458 458 459 459 459 458 457 456 455 454 452 449 447 445 443 442 441 440 440 440 440 441 441 441 442 443 443 444 444 444 444 444 443 443 443 444 444 445 447 449 450 450 451 451 451 450 450 450 450 450 449 449 448 446 445 444 443 441 439 436 432 427 418 403 391 389 391 391 389 387 387 388 387 387 388 391 393 397 407 419 425 421 413 405 398 394 391 390 388 388 388 388 387 387 387 387 388 389 394 403 414 424 432 437 441 445 447 449 450 451 451 452 452 452 452 451 451 451 450 449 450 451 453 455 456 456 455 455 455 454 452 449 447 445 445 447 449 451 453 455 456 457 457 458 458 458 458 457 456 455 454 452 450 448 446 444 442 439 436 433 429 424 421 421 422 422 422 424 424 425 425 425 426 427 428 429 429 429 430 429 429 427 427 426 427 427 428 426 419 400 367 330 312 322 350 375 383 383 383 384 387 393 403 415 424 428 429 428 427 423 419 416 413 411 409 407 405 404 403 404 404 404 404 403 402 400 397 395 392 389 387 384 382 379 377 375 373 370 369 367 366 364 363 361 359 359 359 359 360 361 362 364 365 367 368 369 369 371 373 375 378 381 384 387 390 391 391 390 388 384 378 371 362 354 350 351 357 362 367 371 371 367 362 362 368 378 389 400 410 418 421 420 420 420 422 425 428 432 435 437 438 439 440 442 442 442 443 446 448 449 450 451 452 453 454 456 457 458 460 461 463 466 468 470 471 471 472 472 473 474 474 475 475 476 476 476 477 477 478 479 479 479 478 477 475 474 473 471 469 467 465 462 461 459 459 459 459 459 459 458 457
491 489 487 485 485 484 484 484 484 484 485 485 486 485 485 484 484 483 482 482 482 482 482 482 481 482 483 484 484 484 484 485 485 484 484 483 482 481 480 479 477 476 474 473 471 470 469 469 471 475 478 481 482 483 483 484 484 483 483 483 485 485 486 485 484 483 481 479 476 475 473 472 471 470 468 465 461 458 456 455 456 458 464 471 475 477 479 479 480 480 479 479 479 479 478 477 477 477 477 477 477 477 477 477 476 476 476 476 475 475 474 474 473 473 472 471 470 470 471 471 470 470 469 468 467 466 466 465 465 464 463 462 460 458 457 456 456 456 457 457 458 459 459 459 458 457 456 455 454 451 449 447 445 443 442 440 440 439 440 440 440 441 441 442 443 443 444 444 444 443 443 442 442 442 443 444 445 447 448 449 450 451 451 450 450 450 450 450 449 449 448 447 446 445 444 443 442 440 438 435 430 420 404 393 390 392 391 390 388 387 387 387 387 388 390 392 397 409 421 428 426 421 413 403 395 391 389 388 388 389 388 387 387 386 386 387 388 394 403 413 422 430 436 440 444 447 449 450 451 451 451 451 451 451 451 451 451 450 449 449 451 453 454 455 455 455 455 454 453 452 449 446 444 444 446 448 450 452 454 455 456 456 457 457 457 457 457 456 455 453 451 448 446 445 443 441 439 436 434 430 425 420 418 417 417 416 418 421 422 422 422 423 424 426 427 428 429 429 429 429 428 427 426 426 426 424 421 415 400 370 333 312 319 346 379 398 404 403 404 406 410 414 420 426 429 429 429 428 425 420 417 414 412 410 408 405 403 402 401 402 402 402 402 401 399 397 395 392 390 387 385 382 380 378 375 373 370 368 366 364 363 362 360 358 358 358 359 361 364 366 367 367 368 369 369 369 370 372 374 377 379 382 385 387 389 390 390 390 387 383 377 370 362 356 352 351 353 355 357 357 356 357 365 376 386 396 404 411 415 415 412 410 411 413 416 422 428 432 434 435 436 438 439 440 440 442 445 447 448 449 450 451 452 453 454 456 457 458 460 462 464 466 467 468 469 469 470 471 472 473 474 474 474 475 475 476 476 477 478 478 478 478 477 476 475 474 472 470 468 466 464 462 461 461 461 461 461 460 460 459
491 490 488 487 485 485 484 483 483 483 483 484 484 484 484 483 483 483 482 481 481 480 481 481 481 481 482 483 483 484 484 484 484 485 484 484 483 482 481 480 478 477 475 474 473 471 469 468 470 475 479 482 484 486 486 487 487 486 486 486 486 487 486 486 484 483 481 479 477 475 473 471 470 468 466 464 461 458 456 455 456 459 465 470 473 475 477 479 479 480 480 479 479 479 479 478 477 476 476 476 476 477 477 476 476 476 475 475 475 474 473 473 472 472 471 470 470 469 469 470 469 468 468 467 466 465 464 464 463 463 462 461 460 458 456 455 455 456 456 457 458 459 459 459 459 457 456 455 453 451 449 447 445 443 442 440 439 439 439 440 440 441 441 442 443 443 443 443 443 442 442 441 441 442 442 443 444 446 448 449 450 450 451 450 450 450 450 450 449 449 448 446 445 444 443 442 441 440 439 437 433 424 409 397 393 393 393 391 390 389 389 389 388 389 390 391 398 410 422 428 428 425 419 409 399 393 391 389 388 388 388 388 387 386 385 386 390 400 410 418 425 431 436 440 444 447 449 450 450 450 451 451 451 451 451 451 450 449 448 448 450 452 453 454 454 454 454 453 452 451 448 444 442 443 445 448 450 452 453 454 455 455 456 456 456 456 456 456 455 453 450 447 445 443 441 440 438 436 434 431 427 421 417 415 414 412 412 415 417 418 418 419 421 423 424 425 426 428 429 429 429 428 425 422 418 413 410 408 398 372 337 314 318 344 377 398 408 409 410 412 415 418 421 424 427 428 429 427 424 420 417 415 412 410 408 405 403 400 399 399 400 400 400 399 398 396 394 392 390 388 385 383 380 378 375 373 370 368 365 362 361 360 359 357 357 357 360 364 369 371 371 372 372 372 371 371 371 372 374 376 378 381 383 385 387 389 389 390 389 387 383 378 372 366 360 355 352 349 348 349 352 360 373 385 395 404 409 412 412 409 406 406 410 413 416 421 428 433 434 434 435 437 439 440 441 442 444 447 449 450 451 451 452 453 454 455 456 458 459 461 462 464 465 466 466 467 468 469 470 471 472 472 472 473 474 475 475 476 476 477 477 477 477 477 476 474 473 471 469 467 465 463 463 462 462 462 462 461 461 460
491 490 490 488 487 485 484 484 483 482 482 482 483 483 483 482 482 482 482 481 480 480 480 480 480 480 480 481 482 483 483 484 484 484 484 484 483 482 481 480 478 477 476 474 473 471 469 468 469 474 479 483 486 488 489 489 489 489 488 488 488 487 487 486 484 483 481 479 477 475 473 472 470 468 465 463 460 457 455 455 456 459 463 467 470 472 475 478 479 480 480 480 480 479 479 478 476 476 476 476 476 476 476 476 476 475 475 474 474 473 473 472 471 470 470 469 469 468 468 469 468 468 467 466 465 464 463 463 462 462 461 460 459 457 456 455 455 455 456 457 458 459 459 459 459 458 456 455 453 451 448 446 445 443 441 440 438 438 438 439 440 441 441 442 442 443 443 442 442 441 441 440 440 441 442 443 444 445 447 449 450 450 450 450 450 450 450 450 449 449 448 446 445 443 442 442 441 440 440 439 436 429 416 403 396 395 394 392 391 390 390 390 389 389 389 391 398 411 422 427 427 425 420 413 403 396 391 389 388 387 387 388 387 386 385 386 392 404 417 424 428 432 436 440 443 446 448 449 450 450 450 450 450 450 450 450 449 448 447 447 449 451 452 453 453 453 453 452 451 449 445 442 442 444 446 448 450 451 452 453 454 454 455 455 455 455 456 456 455 454 451 448 445 442 440 438 437 435 433 431 427 423 419 418 416 412 409 409 411 412 413 415 417 419 420 421 423 425 427 428 428 427 421 412 403 396 394 395 390 369 338 314 318 343 375 397 408 410 411 413 415 417 418 421 423 425 426 425 423 419 416 414 412 410 407 405 402 399 397 396 397 397 397 397 396 394 393 391 389 388 385 383 381 379 376 373 371 368 365 362 359 358 357 356 356 358 363 368 373 375 376 376 376 375 374 373 373 373 374 376 377 379 381 383 385 387 388 388 388 388 386 383 379 373 367 361 354 349 346 348 355 368 382 395 405 412 415 413 410 404 402 407 416 422 424 427 432 436 436 436 436 438 440 442 443 443 445 447 449 450 451 452 453 454 455 456 457 458 459 460 461 462 463 464 464 465 466 467 468 469 470 470 470 471 472 473 474 475 475 476 476 476 476 476 476 475 473 471 470 468 466 465 464 464 463 463 463 462 461 460
490 490 490 489 488 486 485 484 483 482 482 481 481 482 482 481 481 481 481 480 480 479 479 479 479 478 479 479 480 481 482 482 482 483 483 483 482 482 481 479 478 477 475 474 473 471 469 467 467 472 478 483 486 489 489 490 490 489 489 489 488 488 487 486 485 483 482 480 478 476 475 473 471 468 465 462 459 456 454 454 455 457 460 463 465 468 471 476 478 479 480 480 479 479 479 477 476 475 475 475 475 475 476 476 476 475 474 473 473 473 472 472 471 469 468 468 467 467 467 467 467 466 466 465 464 463 462 462 461 460 459 459 458 456 455 454 455 455 456 457 458 459 459 459 459 458 457 455 453 451 448 446 445 443 441 440 438 437 438 439 440 440 441 442 442 442 442 442 441 441 440 439 440 440 441 442 443 445 447 448 449 450 450 450 450 450 450 450 449 449 448 446 445 443 442 441 440 439 438 438 438 434 424 412 403 399 395 392 390 391 390 389 389 390 391 394 401 411 420 424 425 424 420 414 406 397 391 389 388 387 386 387 388 387 386 386 394 408 420 427 430 433 436 440 442 445 447 448 449 449 449 449 449 449 449 449 448 447 445 445 448 451 452 452 452 452 452 451 450 447 443 441 443 446 448 449 450 451 452 452 453 453 454 454 454 454 455 455 455 454 452 449 446 443 440 438 436 434 432 429 426 423 421 422 421 417 411 407 405 406 408 410 414 415 416 417 419 422 425 426 426 421 411 396 384 376 374 376 374 357 332 313 318 343 374 396 408 411 412 413 414 415 416 417 420 421 422 421 420 418 416 414 412 410 407 404 401 398 394 393 393 394 394 394 393 392 391 390 389 387 385 383 381 380 377 375 373 370 367 363 360 357 356 355 356 360 365 371 376 378 379 379 379 378 377 377 376 376 376 376 377 379 380 381 383 384 385 386 387 386 386 384 380 374 365 358 352 348 348 353 364 378 392 405 415 421 419 414 406 398 398 409 422 430 432 433 435 438 439 439 438 438 440 442 444 445 446 447 449 450 451 453 454 455 456 457 457 458 458 459 460 461 461 462 463 464 464 465 466 467 468 468 469 469 470 471 472 473 474 474 475 475 475 475 475 474 473 472 470 468 467 466 465 465 465 464 463 462 461 460
489 489 489 489 488 487 486 485 484 483 482 481 481 481 480 480 480 480 480 480 479 479 478 478 478 478 477 478 478 479 480 480 480 480 480 481 481 481 480 479 478 477 475 473 472 471 468 465 464 470 477 483 487 489 490 489 489 489 489 489 488 487 487 486 485 484 482 481 480 478 476 474 472 469 465 462 459 456 454 453 453 454 456 459 461 464 469 474 477 479 479 479 479 479 478 477 475 475 474 474 475 475 475 476 476 475 474 474 473 473 473 472 471 469 468 466 466 465 465 465 465 465 465 464 463 463 462 461 460 459 458 457 456 455 454 454 455 455 456 457 458 459 459 459 459 458 457 455 453 451 448 446 444 442 441 439 438 437 437 438 440 440 441 441 441 441 441 441 440 440 439 439 439 440 441 442 443 445 446 448 449 449 450 450 450 450 450 450 449 449 448 446 445 443 442 440 438 437 436 436 437 436 432 425 417 412 407 401 395 392 392 391 390 391 394 399 405 412 418 422 423 422 418 413 405 395 389 387 387 386 386 387 387 388 387 387 396 409 419 424 428 432 435 438 441 443 445 447 448 448 448 448 448 448 448 448 447 445 443 443 447 450 451 451 451 451 451 450 449 445 441 441 446 450 451 451 451 451 451 452 452 453 453 453 453 453 454 454 454 454 453 451 448 444 441 438 436 434 432 429 426 423 424 426 426 422 416 409 404 401 401 405 409 410 411 412 416 420 423 424 422 413 395 376 362 354 352 353 353 342 324 310 318 344 375 397 408 412 413 413 413 413 413 414 416 417 417 418 417 417 415 413 412 410 407 404 401 397 392 390 390 390 391 391 391 390 389 387 387 386 385 383 382 381 379 376 374 371 368 364 360 357 355 355 357 361 367 373 377 379 379 379 379 379 380 380 379 379 379 378 378 379 380 380 381 382 384 384 385 385 384 382 378 369 358 350 346 347 355 366 379 392 404 416 423 426 422 413 400 391 395 410 425 433 435 436 437 439 440 441 441 440 440 442 444 445 446 448 449 450 451 453 454 455 456 457 457 458 458 459 459 460 460 461 461 462 463 464 465 466 466 467 467 468 468 470 471 472 472 473 474 474 474 474 474 474 473 471 470 468 467 466 466 466 465 464 463 462 462 461
488 489 489 489 488 487 486 485 485 484 483 482 481 480 480 480 479 479 479 479 479 478 478 477 477 477 477 477 477 477 477 477 477 477 478 478 479 479 479 478 477 476 475 473 471 470 467 463 462 467 475 482 486 488 489 489 488 488 488 488 487 487 486 485 484 483 482 481 480 478 477 475 472 469 466 462 459 456 454 452 452 452 453 455 458 462 467 472 476 478 479 479 479 478 477 476 475 474 473 473 474 474 475 475 475 475 475 474 474 474 474 473 472 470 468 466 465 464 463 463 464 464 464 463 463 462 461 460 459 458 456 455 454 453 453 454 455 455 456 456 457 458 459 459 459 458 457 455 453 450 448 445 443 441 439 438 437 436 437 438 439 440 440 441 441 441 441 440 440 439 438 438 439 439 440 442 443 445 446 447 448 449 449 450 449 449 450 450 449 449 448 446 445 444 442 440 438 435 433 433 433 434 433 429 423 418 413 406 398 394 394 395 393 394 399 404 409 413 417 420 421 419 416 411 402 393 388 387 387 387 387 387 387 387 387 388 395 406 415 420 424 428 432 436 439 442 444 446 447 447 447 446 446 446 446 447 446 444 440 441 445 449 450 450 450 450 449 448 446 442 439 442 448 453 453 453 452 451 451 452 452 452 452 452 452 452 452 453 453 453 452 451 449 446 443 440 438 436 433 430 428 426 427 429 428 426 421 415 408 402 397 398 402 405 406 407 412 417 419 420 416 403 379 356 341 334 332 333 332 326 315 308 321 348 377 398 409 413 414 413 413 411 411 411 412 413 413 414 415 415 414 412 411 410 408 405 402 397 392 389 388 388 388 388 388 388 387 385 384 384 383 382 381 380 380 378 375 372 369 365 361 358 356 355 357 361 367 372 375 377 378 379 380 380 381 381 382 382 382 381 381 380 381 381 381 382 383 383 384 383 382 379 373 361 351 345 344 353 367 381 394 405 415 423 427 427 421 410 395 388 394 412 427 435 438 439 439 440 442 443 443 442 441 442 443 444 446 448 449 450 451 453 454 455 456 456 457 457 458 458 459 459 459 460 460 460 461 462 463 464 465 465 465 466 467 468 469 470 471 471 472 473 473 473 473 473 472 471 469 468 467 466 466 465 465 464 463 462 461 460
488 488 488 488 488 488 487 486 485 485 484 483 481 480 479 479 479 479 478 478 478 478 477 477 476 476 476 477 476 476 475 475 474 475 475 475 476 477 477 477 476 476 475 473 471 469 466 462 461 466 473 480 485 487 488 487 485 485 485 485 485 485 484 484 483 482 482 481 480 479 477 475 473 470 466 463 459 456 454 452 451 451 451 453 456 461 465 470 474 476 477 478 478 477 476 475 474 473 472 472 473 473 474 475 475 475 475 475 475 475 474 474 473 471 468 466 464 463 462 462 462 462 463 463 462 461 461 460 459 457 456 454 453 451 452 453 454 454 455 455 456 457 458 458 458 457 456 455 453 450 447 445 442 440 438 437 436 435 436 437 439 440 440 440 440 440 440 440 439 438 438 438 438 439 440 441 443 444 446 447 448 448 449 449 449 449 449 449 449 449 448 447 445 444 442 440 438 435 432 429 428 427 425 422 418 415 412 406 401 399 401 401 398 397 401 406 410 414 417 418 419 417 415 410 401 392 387 386 387 387 387 387 387 387 387 387 394 404 412 417 423 427 430 434 438 441 443 445 446 446 446 445 444 444 444 445 445 443 440 439 442 446 448 448 448 448 448 446 443 438 437 443 450 454 454 454 453 452 452 452 452 451 451 451 451 450 450 451 451 451 451 451 449 447 445 442 440 438 436 433 431 430 430 430 430 428 425 421 415 407 399 394 394 397 399 403 409 414 414 410 405 390 363 338 323 317 315 315 316 313 312 316 334 359 382 400 409 412 413 413 412 410 409 408 408 409 410 411 412 412 412 411 410 409 408 406 403 398 393 390 387 386 385 385 385 385 384 383 382 381 381 380 379 379 379 378 376 373 370 366 362 359 356 355 356 359 365 369 371 373 375 377 379 380 381 382 383 384 384 383 383 383 383 382 382 382 383 383 383 382 381 377 369 357 348 344 346 358 374 388 398 408 417 424 427 425 417 404 390 386 395 414 428 436 439 441 442 442 443 444 445 444 444 443 442 443 445 448 450 451 452 453 454 455 455 456 456 457 457 458 458 458 459 459 459 459 459 460 461 462 463 463 464 465 466 467 468 469 469 470 471 471 472 472 472 472 471 470 469 467 466 465 465 464 464 463 462 461 460 460
487 487 487 487 487 487 487 486 486 485 485 484 482 481 479 479 479 478 478 477 477 477 477 476 476 475 476 476 476 475 474 473 473 473 472 473 474 475 475 475 474 474 474 473 472 470 466 463 462 465 470 478 483 486 486 485 483 481 480 481 481 482 482 481 481 480 480 479 479 478 477 475 473 470 467 464 461 458 455 453 451 450 450 451 455 459 464 468 472 474 475 476 476 476 475 474 473 472 471 471 471 472 473 474 474 475 475 475 475 475 474 474 473 471 469 467 465 463 461 460 460 461 461 462 461 461 460 459 458 457 456 454 452 451 451 452 453 453 454 454 455 456 457 457 457 457 456 454 452 449 446 444 441 439 437 436 435 435 435 437 438 439 439 440 440 440 440 439 438 437 437 437 438 439 440 441 443 444 446 447 447 447 448 448 448 449 449 449 449 449 448 447 446 445 443 441 439 436 433 429 425 423 422 420 418 415 413 410 407 408 408 407 403 400 402 407 412 415 417 418 418 416 414 409 402 394 388 386 386 387 387 387 387 387 387 389 396 406 414 420 425 430 433 435 437 440 442 444 445 445 445 443 441 440 442 443 444 443 440 436 437 443 446 446 447 446 445 444 439 435 436 443 450 453 454 453 453 452 452 451 451 451 450 449 449 448 448 449 449 449 450 450 449 448 446 444 442 440 438 436 435 433 432 432 431 430 428 424 420 413 405 396 390 389 393 401 409 412 407 395 387 374 351 324 310 307 307 307 310 316 327 342 361 380 395 405 410 412 412 412 411 409 407 405 405 405 406 407 408 409 409 409 409 408 408 406 404 400 395 390 387 385 383 382 381 382 382 381 380 379 379 378 377 377 378 377 376 373 370 367 363 360 357 355 355 356 360 364 367 369 372 374 377 379 381 382 383 384 384 384 384 384 384 384 384 384 383 383 382 382 381 379 371 359 350 344 346 355 369 380 389 398 407 416 422 422 412 397 384 382 395 415 428 435 439 442 443 444 445 446 446 447 446 445 444 444 445 447 449 450 451 453 454 454 455 455 456 456 457 457 458 458 458 458 458 458 458 459 459 460 461 462 462 463 464 465 466 467 468 469 470 470 470 470 470 470 470 469 467 465 464 463 463 463 462 462 461 460 459 458
487 487 487 486 486 486 486 486 486 486 485 485 483 481 480 479 479 478 478 477 476 476 476 476 475 475 474 475 475 475 474 473 472 471 470 470 471 472 473 473 473 473 472 472 471 470 467 464 463 464 468 475 480 483 483 483 481 478 476 475 476 477 478 478 477 477 476 476 476 476 476 475 473 471 469 466 464 461 457 454 452 450 449 450 453 457 461 465 468 471 473 474 475 475 474 473 472 471 470 469 469 470 471 472 473 474 474 474 475 475 474 474 472 471 468 466 464 463 461 460 459 460 460 461 461 460 459 458 457 456 455 454 452 451 450 451 452 452 453 454 454 455 456 456 456 456 455 453 451 448 445 443 440 438 437 435 434 434 435 436 437 438 438 439 439 439 439 439 438 437 436 436 437 438 440 441 443 444 445 446 446 446 446 447 447 447 448 448 449 448 448 448 447 446 444 442 441 439 437 433 430 429 429 429 428 427 425 422 419 418 416 413 408 405 405 408 412 415 417 418 418 416 413 409 404 396 389 386 386 387 387 387 388 388 389 393 403 412 418 424 429 433 437 438 439 440 442 444 445 444 443 441 437 435 438 441 443 444 439 433 433 439 444 445 445 444 443 439 434 432 437 445 450 452 452 452 452 451 451 451 451 450 449 448 447 447 446 447 447 447 448 448 448 448 447 446 444 442 440 439 437 435 434 433 433 431 429 425 421 415 409 400 391 384 387 398 408 409 398 378 365 356 340 316 304 307 313 319 326 340 359 377 392 403 410 412 414 414 413 412 411 409 407 404 401 401 402 403 405 405 406 407 407 407 407 406 404 401 396 391 388 385 382 380 379 379 379 379 378 377 376 375 375 375 376 376 375 374 371 368 364 361 358 355 353 353 355 359 362 365 368 370 373 377 379 381 382 383 383 384 384 384 385 385 384 384 384 383 382 382 382 382 377 366 353 344 343 347 355 364 372 381 391 402 414 416 406 390 378 379 394 413 426 434 438 441 443 444 446 447 448 448 448 447 446 445 445 446 448 449 451 452 453 453 454 455 456 456 456 457 457 457 457 457 457 457 457 457 458 459 459 460 461 462 463 464 465 466 467 467 468 469 469 469 469 469 468 467 465 464 463 462 462 462 461 460 459 458 457 456
488 488 487 486 486 485 485 485 485 485 485 485 483 482 481 480 479 478 478 477 476 476 475 475 475 474 473 473 474 474 474 473 472 470 469 469 469 470 471 471 471 471 471 471 470 469 467 465 462 462 465 470 475 478 479 479 478 475 472 471 471 472 472 473 473 473 473 473 473 473 473 473 472 471 469 468 466 463 459 456 453 451 449 448 451 455 458 462 465 468 470 472 473 473 473 472 471 470 468 467 467 468 470 471 472 473 473 474 474 474 474 473 472 470 468 466 464 462 461 460 459 459 459 460 460 459 459 458 456 455 455 453 452 451 450 450 451 452 453 453 454 454 455 455 455 455 454 452 450 447 445 442 440 438 436 435 434 433 433 434 435 436 436 437 438 438 438 438 437 436 435 436 436 438 440 441 442 444 444 445 445 445 445 445 445 446 446 447 448 448 448 448 448 448 446 444 442 441 440 439 437 437 438 439 438 436 433 430 427 424 421 418 413 409 407 409 413 416 419 420 419 416 413 408 402 395 390 387 387 386 387 387 387 388 392 399 408 415 420 425 430 435 438 441 441 442 443 444 444 442 441 438 433 431 433 438 442 444 440 432 430 435 441 443 443 442 438 432 428 431 440 448 451 451 451 451 451 450 450 450 450 449 448 447 446 445 444 444 445 445 446 447 447 447 447 446 445 444 442 441 439 437 436 435 434 432 430 426 421 416 410 405 396 385 382 390 400 400 388 365 346 339 330 313 304 311 324 336 349 366 385 401 411 417 419 420 419 418 416 414 412 410 407 403 399 396 397 398 401 402 404 405 406 406 406 406 404 401 397 394 390 387 383 380 378 377 376 376 376 374 373 372 372 373 374 374 374 373 371 369 365 362 359 355 353 351 352 354 358 361 364 367 370 374 377 379 380 381 382 382 383 384 384 384 385 384 384 382 382 383 384 384 383 374 361 348 342 340 343 348 355 363 373 387 402 405 396 382 373 376 389 405 419 430 435 438 441 443 446 447 449 450 450 449 449 448 447 447 448 449 450 451 452 453 454 454 455 456 456 456 457 457 457 457 456 456 455 455 456 457 457 458 460 461 462 463 464 464 465 466 467 467 467 467 467 467 466 465 463 462 461 461 461 461 460 459 458 456 455 454
488 487 487 486 485 485 484 484 484 484 484 484 483 482 481 480 480 479 478 478 477 476 475 474 474 473 473 472 472 473 473 473 471 470 469 468 467 467 468 468 468 468 468 468 468 467 467 464 461 459 460 464 469 472 473 475 475 473 471 468 467 466 466 468 469 470 470 470 470 470 470 470 470 469 468 467 466 464 460 457 455 452 448 447 450 453 457 460 463 466 468 470 471 471 471 470 470 468 467 465 465 466 468 469 470 471 472 472 473 473 473 472 471 469 467 465 463 462 460 459 459 458 458 459 459 459 458 457 456 454 453 452 451 450 449 449 450 451 452 453 453 454 454 454 454 454 453 451 449 446 444 441 439 437 436 435 434 433 432 433 433 434 434 435 436 437 437 436 435 435 434 435 436 437 439 440 442 443 443 444 444 444 444 444 444 444 445 446 446 447 448 448 448 448 447 446 444 443 442 442 442 442 443 443 443 441 439 435 432 428 425 421 417 413 410 411 414 418 420 421 420 417 413 407 401 394 389 387 387 387 387 387 387 387 392 401 410 416 420 425 429 433 438 441 443 443 443 443 442 440 438 435 430 425 426 433 440 443 441 433 427 429 436 439 439 437 432 425 425 433 444 451 452 451 451 450 450 449 450 450 450 449 448 447 446 444 443 443 443 443 444 445 445 445 446 446 445 445 443 442 441 439 438 437 435 433 430 427 422 417 413 408 402 391 380 377 381 381 369 352 338 333 326 313 305 312 326 343 359 376 391 405 415 421 423 423 423 422 419 416 413 410 407 402 396 392 392 394 396 399 401 403 404 404 404 404 404 402 399 396 393 389 386 383 379 376 375 374 373 372 370 369 369 370 371 372 372 371 371 368 365 362 358 355 352 349 348 350 354 357 361 364 367 370 373 376 377 378 379 380 382 383 384 384 384 384 383 382 381 382 384 385 386 382 373 359 347 340 338 339 342 347 358 374 390 392 382 372 369 374 386 400 413 425 432 436 439 442 445 447 449 450 451 451 451 450 449 449 449 450 450 451 452 453 453 454 455 455 455 456 456 456 456 456 455 455 454 453 454 455 455 456 458 459 460 461 462 463 464 465 465 466 466 465 465 465 464 463 461 460 458 458 458 459 458 458 456 455 454 452
488 487 487 486 485 484 484 484 484 483 483 482 482 481 481 481 480 480 479 479 478 477 476 474 474 473 472 471 471 471 472 471 471 470 469 468 466 465 465 465 464 464 464 464 464 464 464 462 460 457 457 460 464 466 468 469 470 470 469 467 464 462 462 464 466 467 467 467 467 467 467 467 467 466 465 465 464 463 461 458 456 452 448 446 449 453 457 460 462 465 467 468 468 468 468 468 468 467 465 464 463 464 466 467 468 469 470 471 471 472 472 471 470 468 466 464 462 461 460 459 459 458 458 458 458 458 457 457 455 454 452 451 450 450 449 449 450 451 452 452 453 453 453 453 453 453 452 450 448 446 443 441 439 438 436 435 434 433 432 432 432 432 432 433 434 435 435 435 434 433 433 434 435 436 438 439 441 442 442 443 443 443 443 443 443 443 444 444 445 446 447 447 448 448 448 447 446 445 444 443 443 443 444 444 444 444 442 439 435 431 428 424 420 416 414 415 417 420 422 422 421 418 414 408 402 395 389 387 387 388 388 388 386 386 390 397 406 413 419 423 427 431 436 440 443 444 444 443 441 439 436 432 426 419 419 426 435 438 438 432 423 420 425 429 430 429 424 423 429 439 448 453 453 452 450 450 449 449 449 449 450 449 449 447 446 444 443 442 441 441 442 443 443 443 443 444 444 444 444 443 441 440 439 438 436 434 431 428 424 420 416 412 406 395 379 365 360 358 352 346 345 344 335 318 306 307 319 336 353 369 384 397 408 417 421 423 424 424 422 418 414 410 406 401 394 389 387 389 392 396 399 401 402 402 402 402 402 402 400 398 395 392 388 385 381 377 374 372 371 369 367 366 366 366 368 368 369 369 369 367 364 361 358 355 352 348 346 347 350 355 359 362 365 368 370 372 374 376 377 378 380 381 383 383 383 383 382 381 380 380 381 384 386 387 383 373 359 348 342 340 338 340 347 365 381 381 370 363 365 376 391 405 416 425 431 434 437 440 443 446 448 450 451 452 452 452 452 451 451 451 451 452 453 453 453 454 454 455 455 455 455 455 455 455 454 453 452 452 452 452 453 454 456 457 458 460 461 462 463 463 464 464 464 464 464 463 462 461 459 456 454 453 454 455 455 455 455 454 453 452
489 488 487 487 486 485 484 484 483 483 482 482 481 481 481 481 481 481 480 480 479 478 477 475 474 473 472 471 470 469 469 469 469 469 469 469 467 466 464 463 462 461 462 463 463 462 461 460 458 456 456 457 460 462 463 464 466 467 467 465 462 459 459 460 462 464 464 465 465 465 465 465 464 463 462 462 462 461 460 458 456 453 448 446 447 451 456 459 461 463 464 465 465 465 465 465 465 465 464 462 461 462 464 466 467 468 468 469 470 470 470 470 469 468 466 464 462 460 459 459 458 458 457 457 457 457 457 456 455 454 452 450 449 449 448 448 449 450 451 452 452 452 452 452 452 452 451 450 448 445 443 441 439 438 437 436 435 434 433 432 431 430 430 431 432 433 433 432 432 432 432 433 434 435 437 438 440 441 442 442 442 442 442 442 442 443 443 443 444 445 445 446 447 447 448 448 447 446 445 444 444 444 444 445 445 444 443 441 437 434 430 427 423 420 419 419 421 423 424 424 423 420 417 411 405 398 391 388 388 389 388 387 386 386 388 393 401 409 416 421 425 430 434 438 441 443 444 443 441 438 435 430 422 414 411 416 425 428 427 422 415 410 412 417 420 420 421 426 437 446 451 453 453 452 450 449 449 448 448 449 449 449 449 448 446 445 443 441 440 439 439 439 440 440 440 441 442 442 442 442 441 441 440 438 437 434 432 429 426 421 416 411 405 395 377 360 354 354 352 354 361 364 353 332 312 305 312 327 342 357 371 385 397 407 414 418 421 423 422 419 415 410 406 401 395 387 384 385 388 392 396 398 398 398 398 398 399 400 400 398 396 393 390 387 383 379 376 373 370 367 365 364 363 364 365 365 366 367 367 366 364 361 359 356 352 348 346 345 348 352 357 360 363 365 367 369 371 373 374 376 378 380 381 382 383 383 382 381 379 378 377 379 383 388 389 384 376 365 357 350 343 339 343 360 374 370 358 356 364 380 398 414 424 429 431 431 433 437 441 444 447 449 451 452 453 454 453 453 453 453 453 453 453 453 454 454 454 454 454 454 454 454 454 453 453 452 451 450 450 450 451 452 453 454 456 458 459 461 461 462 463 463 463 462 462 462 461 459 456 452 450 449 448 450 450 451 452 452 452 451
491 490 489 488 487 485 484 484 483 483 482 482 482 481 481 481 482 481 480 479 479 479 477 476 474 473 471 470 469 468 467 467 468 469 469 469 468 466 465 463 461 461 464 466 467 466 464 462 459 457 456 457 458 458 459 459 461 463 464 463 461 458 457 457 459 460 461 462 462 462 462 462 462 461 460 459 458 458 458 457 455 452 448 445 446 448 453 456 458 460 461 462 462 462 462 462 462 462 461 460 460 461 463 464 465 466 467 467 468 468 468 469 468 467 465 463 461 460 459 458 458 457 457 457 457 457 456 456 455 454 452 450 449 448 447 447 449 450 450 451 451 452 452 451 451 451 451 450 448 445 443 441 440 438 437 436 435 434 433 432 431 429 429 429 430 431 431 431 431 431 431 432 433 434 436 438 439 440 441 441 442 442 442 441 442 442 442 443 443 444 444 445 445 446 447 447 447 447 446 445 445 445 445 445 445 445 444 442 439 435 432 429 426 423 422 423 424 426 426 425 424 422 419 414 408 401 394 390 389 389 388 387 386 389 393 396 400 406 412 419 423 428 432 436 440 442 443 442 441 438 434 429 421 410 403 405 412 413 410 408 406 404 407 413 418 421 425 433 443 449 452 452 452 451 450 449 448 448 448 448 448 448 448 448 447 445 444 442 440 439 438 437 436 435 435 436 438 439 440 440 440 440 439 438 436 434 432 429 424 417 410 403 397 386 373 363 364 370 370 370 376 378 368 347 324 309 306 316 329 343 356 368 380 391 400 408 413 417 418 418 416 412 408 403 396 387 381 380 384 388 392 394 395 395 394 395 396 397 397 397 396 394 391 388 384 381 378 375 372 368 366 364 363 362 362 362 363 364 365 364 363 362 360 357 353 349 346 345 346 350 354 358 361 363 364 366 368 370 372 374 376 378 379 380 382 382 382 381 380 378 375 375 378 383 387 389 387 381 372 361 349 340 343 359 368 359 349 352 366 386 404 420 429 431 428 426 428 434 439 443 446 449 451 452 454 454 454 454 454 454 454 454 454 454 454 454 454 453 453 453 453 453 452 452 451 451 450 449 448 448 448 450 450 451 453 455 457 459 460 461 461 462 461 460 459 459 458 456 454 451 448 446 445 445 446 447 449 450 451 450
493 492 491 490 488 486 485 484 483 483 483 482 482 482 482 482 483 482 481 480 480 479 478 475 474 473 471 470 468 467 466 466 467 468 468 468 467 467 466 464 464 466 469 472 472 472 470 467 462 461 461 461 460 458 456 455 456 458 459 460 459 457 455 455 455 457 458 459 459 459 458 459 459 459 458 457 456 455 455 454 453 451 448 446 444 445 448 451 453 455 457 457 458 459 459 459 459 459 459 458 458 460 462 463 464 464 465 465 465 466 466 467 467 467 465 463 461 459 458 458 457 457 456 456 456 456 456 456 455 454 452 451 449 447 446 446 447 449 450 450 451 452 452 451 451 451 450 449 447 445 443 442 440 439 438 436 435 434 433 431 430 429 428 428 428 429 429 429 429 430 431 431 432 433 435 437 439 440 441 441 441 442 441 441 441 441 441 442 442 443 443 444 444 445 446 446 447 447 447 446 445 445 445 445 445 445 444 443 441 437 434 431 428 427 426 426 427 428 428 427 426 424 421 416 410 403 396 392 390 389 387 387 386 392 399 403 404 407 411 417 422 426 430 434 438 441 441 441 440 437 434 428 420 407 396 394 397 398 397 399 403 407 412 419 426 430 435 440 446 450 450 450 450 449 448 448 447 447 447 447 447 447 447 447 446 446 444 443 441 440 438 436 434 432 431 431 433 435 437 438 438 438 438 437 435 433 430 426 418 409 399 391 383 376 370 371 380 389 388 383 384 386 378 361 339 318 305 306 316 328 338 350 362 374 383 392 401 407 410 412 413 412 408 402 394 385 378 376 379 384 387 389 390 390 390 391 392 394 395 395 394 393 391 388 386 383 381 378 375 372 369 367 364 362 360 360 360 361 361 362 362 362 360 357 354 350 347 344 345 349 352 356 358 360 362 364 366 368 370 372 374 375 377 379 381 382 383 383 382 380 377 373 372 374 378 384 389 387 378 365 349 339 343 356 357 347 342 352 370 391 409 422 428 428 423 421 425 432 437 442 445 448 450 452 454 454 455 455 455 455 455 454 454 454 454 454 453 453 453 452 452 451 451 451 450 450 449 448 446 446 446 447 448 449 450 452 455 457 458 459 460 460 460 458 457 456 455 453 452 451 448 445 442 441 442 444 445 447 448 448
495 494 493 491 488 486 485 484 484 483 483 483 482 482 482 482 483 484 484 483 483 482 479 476 475 474 472 470 469 468 466 466 467 469 470 470 470 470 469 469 470 473 476 477 477 476 474 470 467 466 467 467 465 460 455 452 452 453 454 455 455 455 454 452 452 453 454 455 456 455 455 455 456 456 456 455 454 453 452 452 451 450 448 445 444 443 445 447 448 450 452 453 454 455 456 457 457 457 457 457 457 458 460 461 462 462 463 463 463 464 464 465 466 466 465 463 461 459 458 458 457 456 456 455 455 456 455 455 455 453 452 450 449 447 446 445 446 448 449 450 451 451 452 451 451 450 449 448 446 445 443 442 441 439 438 437 435 434 432 431 429 428 427 427 427 427 427 427 428 429 430 430 431 432 434 436 438 440 440 441 441 441 441 440 440 440 440 441 441 442 442 443 443 444 444 445 446 447 447 446 446 445 445 445 445 445 444 444 442 439 435 433 431 430 429 430 430 430 429 427 426 424 420 415 409 403 396 392 390 389 388 387 386 392 400 406 408 410 413 417 421 426 430 433 436 438 439 439 437 435 432 427 417 403 391 387 389 392 397 405 411 416 422 429 435 439 442 445 447 449 449 448 448 447 447 447 447 447 447 446 446 446 446 446 446 445 444 443 442 441 439 437 434 432 430 429 429 430 432 434 435 435 435 434 433 431 427 419 409 399 388 381 375 374 376 384 394 401 400 396 393 394 390 377 356 334 315 307 306 312 320 331 344 356 366 376 386 392 396 401 405 407 404 398 390 381 374 372 375 380 383 385 386 386 386 387 388 390 392 392 392 391 390 389 387 385 382 380 377 375 372 369 366 363 360 358 357 357 358 358 360 360 360 358 355 351 347 344 345 348 352 354 355 357 360 362 364 367 369 370 372 373 375 377 380 382 384 384 384 383 380 375 370 366 368 374 381 382 374 360 345 338 343 349 342 334 335 351 374 395 409 417 420 419 415 416 422 430 436 440 444 448 450 452 454 454 455 455 455 455 455 455 454 454 454 454 453 452 452 451 450 450 450 449 448 448 447 447 445 444 444 445 445 446 448 450 453 456 457 458 459 459 458 457 455 453 452 451 450 449 448 445 441 438 438 439 441 443 444 444
497 496 494 492 489 487 485 485 484 484 483 483 483 483 483 483 485 488 489 489 487 485 482 479 477 477 476 474 472 471 468 467 469 473 476 477 476 475 475 477 479 480 481 481 480 478 475 472 471 472 473 472 469 464 459 455 452 452 452 452 452 453 452 452 452 452 452 452 452 452 452 452 453 454 454 454 453 451 450 450 449 448 447 445 443 442 443 444 445 446 447 448 450 452 454 455 456 456 456 456 456 457 458 459 460 460 461 461 461 462 463 463 464 465 464 463 460 459 458 457 457 456 455 455 455 455 455 454 454 453 451 450 449 447 445 444 445 446 448 450 451 451 451 451 450 449 448 446 445 444 443 442 441 440 438 437 436 434 433 431 429 428 427 426 425 425 426 426 426 427 428 429 429 431 433 435 438 439 440 440 441 441 440 440 439 439 439 440 440 441 441 442 443 443 443 444 445 446 446 446 446 445 445 445 445 445 445 444 443 440 437 435 433 432 432 432 431 431 429 427 424 421 417 411 405 398 393 390 390 389 388 387 386 391 398 405 409 412 415 418 422 426 430 433 434 436 436 435 433 432 430 425 413 399 388 386 390 399 411 420 424 425 428 433 439 442 445 446 447 448 448 447 447 446 446 446 446 447 447 446 446 445 445 445 445 444 444 443 442 441 440 438 436 434 432 429 427 426 427 429 431 432 431 430 428 426 420 411 400 391 383 380 381 384 388 394 402 408 408 406 403 403 400 392 376 358 340 322 310 304 307 316 327 338 349 359 369 375 378 384 391 396 396 392 385 376 369 369 374 378 380 381 381 381 382 382 384 386 388 388 389 389 388 388 386 385 383 381 379 376 374 372 369 366 362 359 356 355 355 355 356 357 358 357 355 352 348 344 344 346 349 351 353 355 358 361 364 365 367 368 370 371 374 377 379 382 385 387 387 386 382 377 369 363 359 362 368 370 364 352 340 339 342 339 328 323 327 345 370 391 403 406 408 407 406 410 419 428 434 439 443 447 450 452 454 454 455 455 455 455 455 455 455 455 454 454 453 452 451 450 449 448 448 448 447 446 446 445 444 443 443 443 443 444 446 449 452 455 456 457 457 458 458 456 455 453 451 450 448 447 445 442 439 435 434 435 437 438 440 441
499 498 496 493 490 488 486 485 485 484 484 483 483 483 483 484 487 491 493 492 490 487 485 482 481 481 481 480 478 476 472 468 470 476 481 483 482 482 482 483 484 484 484 483 482 478 475 474 475 476 476 475 473 470 466 460 456 454 454 453 452 453 454 454 454 454 453 452 451 450 449 449 450 451 452 452 451 450 448 448 447 447 446 444 442 441 441 442 442 443 444 445 447 449 451 453 454 455 455 455 454 455 457 458 458 459 459 459 460 460 461 462 462 463 462 462 460 458 457 457 457 456 455 454 454 453 453 453 452 452 450 449 448 447 445 443 443 445 447 449 450 450 451 451 450 448 447 445 443 443 442 442 441 440 439 438 436 435 433 432 430 428 427 425 425 424 424 425 425 426 427 428 429 430 432 435 437 438 439 440 440 441 440 439 439 439 439 439 439 440 441 441 442 442 443 443 444 445 446 446 446 446 445 445 445 445 445 444 444 442 439 436 435 434 433 433 432 431 429 426 423 418 412 406 401 395 390 388 389 389 389 388 386 388 394 401 406 411 415 419 423 427 430 432 433 433 433 431 428 425 424 420 411 397 387 386 396 413 427 433 433 432 433 436 440 443 445 446 446 446 446 446 445 445 445 446 446 447 447 446 446 445 444 444 443 443 442 442 441 441 440 439 438 436 434 432 428 424 422 423 425 425 424 422 419 416 410 402 392 387 385 387 392 397 399 401 406 410 412 411 410 409 408 403 395 383 369 350 328 311 304 305 311 319 330 343 354 359 360 366 374 381 385 383 377 370 368 371 376 379 380 380 380 380 379 379 381 382 383 384 385 386 386 386 385 384 383 381 379 377 375 373 371 369 365 362 358 355 353 352 353 354 355 355 354 352 348 344 342 343 345 347 350 354 358 360 362 363 365 367 368 370 373 376 378 382 385 388 389 388 384 377 369 361 355 352 353 354 349 341 335 338 337 329 321 318 320 334 357 377 387 389 391 394 399 407 418 428 435 440 444 447 450 452 454 454 455 455 455 455 455 455 455 455 454 454 453 452 451 450 448 447 447 446 446 444 444 443 443 442 441 442 442 443 446 449 452 454 455 456 456 457 457 456 455 453 452 450 448 446 443 441 438 434 432 432 432 434 435 436
500 499 496 494 491 489 487 486 485 485 485 484 484 484 484 486 489 493 494 492 490 487 486 485 485 485 485 484 483 480 476 471 471 476 481 484 485 486 486 487 487 486 486 484 482 478 476 477 478 479 479 478 476 473 470 465 459 457 458 457 456 457 459 460 460 458 456 454 452 450 448 447 448 448 449 449 449 448 446 446 445 445 444 443 441 440 440 440 441 442 443 444 445 447 449 451 452 454 454 454 453 454 455 456 457 457 458 458 458 459 460 460 460 460 460 460 458 457 455 456 456 456 455 454 453 452 451 450 450 450 449 448 447 446 445 443 442 444 446 448 449 450 450 451 450 448 447 445 443 441 441 441 441 440 439 438 437 436 434 432 431 429 427 426 424 424 423 424 424 425 426 427 428 429 431 433 435 437 438 439 440 440 440 439 439 438 438 439 439 439 440 441 441 442 442 443 443 444 445 446 446 446 446 445 445 445 445 444 444 442 440 437 436 435 435 434 433 432 430 427 423 419 413 407 402 396 391 389 389 390 389 388 387 386 389 394 401 407 412 417 422 426 430 433 434 434 432 429 424 418 414 413 408 396 388 388 400 418 432 435 434 433 434 437 440 443 445 445 445 445 444 443 443 443 444 445 446 446 446 446 446 445 444 443 442 442 441 440 440 440 439 439 438 437 435 433 430 425 421 418 417 416 414 411 408 406 401 396 391 390 393 396 400 405 407 407 409 412 414 414 414 413 413 411 407 402 392 374 353 331 315 306 303 305 314 327 338 342 344 350 359 367 371 369 365 364 368 375 380 383 383 382 381 380 379 378 378 379 379 380 381 382 383 383 383 383 382 380 379 377 375 373 372 370 368 365 361 358 354 351 350 350 351 352 352 351 348 344 341 340 341 344 348 352 355 357 359 361 364 366 368 370 372 375 378 381 386 388 389 389 386 378 368 359 353 347 343 339 334 331 331 333 330 324 323 323 320 324 340 357 366 372 377 386 396 409 421 431 437 441 445 448 450 452 453 454 454 454 454 454 455 455 455 455 454 454 453 452 451 450 448 446 445 445 444 443 442 441 441 440 440 440 441 443 446 449 452 453 454 454 455 456 456 456 455 453 452 451 449 446 444 442 439 435 432 430 430 430 430 430
500 499 497 495 492 490 489 487 486 485 485 485 485 485 485 487 490 493 494 492 490 488 487 486 487 487 488 487 485 483 478 473 473 477 481 483 485 487 488 489 488 487 486 484 481 479 478 480 481 481 481 479 477 474 471 466 461 460 462 463 462 462 464 465 464 463 461 458 455 452 449 447 446 446 446 446 446 446 445 445 444 443 442 441 440 440 440 440 440 441 442 443 444 446 447 449 450 452 452 452 452 452 453 454 455 456 456 457 457 458 458 458 458 458 457 457 456 455 454 454 455 455 455 455 453 452 451 449 448 448 448 447 447 446 444 442 440 442 444 447 448 449 450 450 450 449 447 445 443 441 440 439 440 440 439 438 437 436 434 433 431 430 428 426 424 423 422 423 424 425 426 427 428 429 430 432 434 436 437 438 439 440 440 439 438 438 437 438 439 439 439 440 440 441 442 442 443 444 444 445 445 446 446 445 445 445 444 444 443 442 440 438 437 436 435 434 433 432 431 429 426 422 418 413 408 402 395 391 391 391 390 389 388 386 386 389 394 400 405 412 419 425 430 434 436 436 434 429 423 414 406 403 401 395 389 388 396 409 420 423 424 428 433 437 440 442 443 444 443 441 439 438 439 441 444 445 445 445 445 445 445 445 444 443 442 441 440 439 438 438 438 438 438 437 436 434 431 427 421 416 412 409 407 405 404 402 400 398 397 400 403 404 405 409 412 412 413 414 416 416 416 416 416 416 414 410 403 390 373 354 337 323 314 307 305 311 319 323 327 334 344 351 354 354 355 361 370 379 384 387 388 387 385 383 381 379 377 376 376 376 377 378 380 380 381 381 380 379 377 375 374 373 372 371 369 367 364 360 356 352 350 348 348 348 348 348 347 344 341 339 340 343 347 350 353 356 359 362 366 368 369 370 372 375 378 381 385 388 389 389 387 379 369 359 351 345 336 329 325 325 327 327 324 324 331 334 326 320 326 339 350 362 375 390 403 415 425 433 438 442 445 448 450 451 452 453 454 454 454 454 454 455 455 455 454 454 453 452 451 450 448 446 444 443 442 441 439 439 438 438 438 438 440 443 446 449 451 452 453 453 454 455 455 455 454 453 452 451 450 448 446 444 441 438 434 432 431 430 428 427
500 499 497 495 493 491 489 488 486 485 485 486 487 487 487 488 491 493 492 491 489 488 487 487 487 488 489 488 486 484 480 475 475 481 484 485 486 487 489 489 489 487 486 483 481 481 482 483 484 483 482 480 477 474 471 466 462 462 464 466 467 467 467 467 466 465 463 461 458 456 453 451 448 446 445 444 444 445 445 445 444 442 441 440 440 440 440 440 440 442 443 443 444 445 447 448 449 450 450 450 450 451 451 453 454 455 455 456 456 456 456 456 456 455 455 454 454 453 452 452 453 454 455 454 453 452 451 449 448 447 446 446 446 445 443 440 439 439 442 445 447 448 449 450 450 449 447 445 443 441 439 438 438 438 438 438 437 436 434 432 431 429 428 426 424 423 422 422 424 425 426 427 428 428 429 431 432 434 435 437 439 439 440 439 438 437 437 437 438 438 439 439 440 440 441 441 442 444 444 445 445 445 445 445 445 445 444 444 443 441 439 438 437 436 435 434 433 432 431 429 427 425 422 418 413 405 398 395 393 392 390 390 389 387 386 386 388 392 397 405 414 422 429 434 437 438 435 429 420 411 402 395 393 391 388 387 390 395 401 404 408 417 427 434 438 440 440 439 438 434 432 433 437 441 443 444 444 444 444 444 444 444 444 443 442 441 439 438 437 436 436 437 436 436 435 434 431 427 421 415 412 411 412 410 408 409 409 410 410 412 413 412 411 412 414 416 417 417 418 418 419 419 419 419 417 414 409 400 387 373 360 348 337 323 309 303 303 305 309 317 325 331 335 341 351 362 374 383 388 391 392 391 388 385 382 379 377 375 373 372 373 374 376 377 378 378 377 376 375 374 373 372 371 370 369 368 366 363 359 355 352 349 347 345 345 345 344 343 340 339 340 343 347 350 353 357 361 365 368 371 372 372 373 375 378 382 385 388 389 389 386 379 368 358 350 343 334 326 323 323 324 324 326 333 344 347 334 320 320 330 344 362 382 400 413 422 429 434 438 442 445 447 448 449 451 452 452 452 452 453 454 454 454 454 454 454 453 452 451 450 448 446 444 442 440 439 437 436 436 436 436 437 439 442 445 448 449 450 451 452 453 453 454 454 454 453 452 451 450 449 447 445 443 440 438 435 434 432 430 428
500 499 497 495 493 491 489 488 487 486 486 488 489 489 489 490 491 492 491 490 489 488 487 486 487 487 488 487 486 484 480 476 478 485 489 489 488 488 489 489 488 487 485 483 483 484 485 485 485 484 482 480 477 474 470 467 466 466 466 468 469 469 469 468 467 466 464 462 460 459 457 453 449 446 445 444 445 446 446 445 444 442 440 440 440 440 440 440 441 443 444 445 445 446 447 447 448 449 449 449 449 449 450 451 452 453 454 454 454 454 454 454 454 453 453 452 452 451 450 450 451 453 453 453 452 451 451 450 448 446 445 445 444 443 441 439 437 437 440 443 445 447 448 449 449 448 447 445 443 441 439 438 437 437 437 437 436 435 433 432 430 428 427 425 424 422 421 421 423 425 426 426 427 428 429 429 431 432 434 435 437 439 439 439 438 437 436 437 437 438 438 439 439 439 440 441 442 443 444 444 445 445 445 445 445 445 444 443 442 440 438 437 436 435 435 434 433 432 431 429 428 426 423 420 414 407 400 398 395 393 391 390 389 388 387 386 386 387 390 397 407 418 426 432 436 436 431 421 410 403 396 389 387 386 386 387 387 388 389 390 394 403 416 426 433 434 433 431 429 426 427 432 437 441 442 443 443 443 443 443 443 443 443 443 442 441 439 438 436 435 435 435 435 435 434 433 430 425 420 415 415 420 423 422 420 420 421 421 421 421 420 418 416 415 416 418 419 420 420 420 420 420 420 420 419 417 412 406 398 389 380 371 361 346 328 311 300 297 297 302 308 313 321 335 351 366 378 387 391 393 394 394 391 387 383 380 378 374 371 370 370 371 372 374 374 375 374 374 373 373 372 370 369 368 368 367 366 364 361 358 355 352 348 345 343 342 342 341 340 338 339 343 348 352 354 358 361 365 369 371 373 374 375 376 379 382 385 388 390 389 386 378 367 358 350 343 334 326 322 321 323 328 337 347 358 360 344 325 318 325 341 362 384 404 418 427 432 435 438 441 443 445 445 446 448 449 449 449 449 451 452 453 454 454 454 454 453 452 451 450 448 446 444 441 439 437 436 435 434 434 434 436 438 441 444 446 447 448 449 450 451 452 452 453 453 452 452 451 451 449 448 446 444 442 440 438 436 435 433 431
499 498 497 495 493 491 490 489 489 489 489 490 491 491 490 491 491 491 490 489 488 487 486 486 486 486 486 485 484 482 479 478 482 489 493 492 491 490 490 489 489 488 486 485 485 486 487 486 486 484 482 480 476 473 471 469 469 469 469 469 470 470 470 469 468 466 464 462 461 459 456 452 449 447 447 448 448 448 447 446 444 442 441 440 440 440 440 440 441 444 445 446 447 447 447 447 448 448 448 448 448 448 449 449 450 451 452 452 453 453 453 452 452 451 451 450 449 448 448 448 449 450 450 450 450 450 449 449 448 446 445 443 441 439 438 435 434 435 437 440 443 445 446 447 448 447 446 444 442 440 438 437 436 436 436 436 436 435 433 431 429 427 426 425 423 422 421 420 421 423 425 426 426 427 428 428 429 430 432 434 436 438 438 438 437 436 436 436 436 437 437 438 438 439 440 441 442 443 444 444 445 445 445 445 445 445 444 442 441 439 437 436 435 434 433 433 432 431 430 429 427 426 423 420 415 408 403 401 397 393 390 390 388 388 388 387 387 386 386 391 401 411 419 426 430 430 423 409 397 391 389 386 385 385 386 387 387 387 387 386 388 392 402 413 422 424 421 419 420 422 427 433 438 440 441 441 442 442 442 443 443 442 442 442 441 441 440 438 436 435 433 432 432 432 432 430 427 422 418 416 419 427 433 433 430 429 429 429 428 427 426 423 420 419 419 420 421 421 421 421 421 421 421 420 420 419 415 411 407 402 395 387 379 366 348 329 313 304 298 296 297 301 313 332 351 365 377 386 391 394 394 394 393 389 385 382 379 375 372 369 368 368 369 371 372 372 372 372 372 371 370 369 367 366 366 366 365 364 363 361 358 355 351 348 345 342 340 339 338 338 338 342 346 350 352 354 356 359 364 369 373 376 377 379 381 383 386 389 390 391 388 380 371 362 354 346 339 332 328 327 330 338 349 361 370 371 357 334 319 321 333 352 375 396 413 425 432 436 438 440 441 441 441 443 444 445 445 445 446 448 451 452 453 453 453 453 452 452 451 449 448 446 444 442 439 437 435 434 433 433 434 435 437 440 442 444 445 446 447 448 449 450 451 451 452 451 451 451 450 449 448 446 444 443 441 439 437 435 433 431
498 497 496 494 493 492 491 492 492 492 492 492 492 492 491 491 491 490 489 488 487 486 486 485 484 484 484 483 482 480 478 480 486 492 495 495 494 493 492 491 490 489 488 488 488 488 488 487 486 484 482 480 477 474 472 472 472 471 471 470 470 471 470 470 468 466 464 462 460 458 454 451 450 450 452 453 453 451 448 446 444 442 441 441 440 440 440 440 442 444 446 448 448 447 447 447 447 447 447 447 447 447 448 448 449 450 450 451 452 452 452 451 450 449 449 448 447 446 446 446 447 448 448 447 447 447 447 447 447 446 444 442 439 436 433 431 431 432 434 437 441 443 445 446 446 446 445 444 442 440 438 436 434 434 435 435 435 434 433 431 429 427 425 424 423 421 420 419 420 421 424 425 425 426 427 427 427 428 430 432 435 436 437 437 436 435 435 435 435 436 437 437 438 438 439 440 442 443 444 444 444 445 445 445 445 445 444 442 440 439 437 434 433 432 431 431 430 429 429 428 426 425 423 419 415 411 407 403 398 392 388 389 389 389 389 388 387 386 385 387 393 401 408 416 420 418 409 398 389 386 386 386 386 387 387 387 388 389 389 388 388 388 393 400 406 408 407 410 416 423 429 434 437 438 439 440 441 441 442 442 442 442 441 441 441 440 439 438 437 435 433 431 430 429 428 426 424 420 418 418 424 431 437 437 436 435 434 434 433 431 429 427 424 422 421 422 422 422 422 422 422 421 421 421 420 420 418 417 415 411 407 400 392 378 362 346 333 322 310 299 293 296 307 325 342 356 369 380 387 392 394 394 394 391 387 384 381 378 374 371 368 367 367 369 370 370 371 370 370 370 369 368 366 364 364 364 364 364 363 362 360 357 354 351 348 344 341 338 337 337 336 338 342 345 347 348 349 352 358 365 372 377 380 382 384 386 388 390 392 393 391 386 378 369 361 355 349 344 340 340 343 348 357 369 377 379 369 346 324 317 323 337 360 385 406 421 431 435 437 438 438 437 437 438 440 440 440 441 443 447 449 451 451 451 452 451 451 451 450 449 447 445 444 442 440 437 435 434 433 432 433 434 436 438 440 441 443 444 446 447 448 449 450 450 450 450 450 450 449 449 448 446 444 443 441 440 437 434 432 429
498 497 495 494 494 494 494 495 496 496 495 495 494 493 492 492 491 491 490 489 488 486 485 485 485 485 484 483 481 479 478 482 488 494 496 497 496 495 494 493 492 491 490 490 490 490 489 488 487 485 483 481 479 477 475 474 473 473 472 471 471 471 471 470 469 467 465 464 461 458 454 452 453 456 458 458 457 453 450 447 445 443 442 442 441 441 441 441 441 443 446 448 448 447 447 446 446 446 446 446 446 446 447 447 448 449 450 450 451 451 452 451 450 448 447 446 445 444 444 444 445 446 445 445 445 445 445 446 446 445 444 442 438 434 431 429 428 429 431 434 437 440 442 443 444 444 444 442 440 439 437 435 433 433 433 434 434 433 432 431 429 427 425 423 422 421 420 419 419 420 422 424 424 425 426 426 426 427 428 431 433 435 436 436 435 434 434 434 434 435 436 437 437 438 439 440 441 442 443 444 444 445 445 445 445 445 444 443 441 439 436 434 431 430 429 428 427 426 426 425 424 423 421 419 417 414 410 406 398 391 388 390 390 390 390 389 388 387 386 386 388 391 396 401 404 401 395 389 386 385 386 387 387 387 387 387 388 393 397 398 397 395 395 396 395 395 399 408 418 425 429 432 434 436 437 439 440 441 442 442 442 441 441 440 440 439 438 437 437 435 433 431 429 427 426 424 423 422 422 423 426 432 436 438 438 438 437 436 435 434 432 429 427 425 424 423 423 423 423 422 422 422 421 421 421 421 420 420 419 417 413 408 399 386 370 358 351 342 328 312 299 294 299 312 327 342 357 369 379 387 392 394 394 393 389 385 382 381 378 374 369 366 365 366 368 368 369 369 368 368 367 366 365 363 363 363 363 363 362 362 360 358 355 353 351 348 343 339 336 335 334 334 336 339 340 342 344 348 356 365 373 378 382 385 387 389 390 391 393 395 395 392 386 377 369 364 359 356 353 354 356 358 363 372 380 383 378 359 335 319 316 326 348 376 402 419 429 434 436 436 435 434 433 433 435 435 435 437 441 445 448 449 449 450 450 450 450 450 449 448 447 445 443 442 440 437 435 433 432 432 432 433 435 436 438 440 442 443 445 446 448 448 449 449 449 449 449 449 448 448 447 446 444 443 441 440 437 434 432 428
500 498 496 495 495 497 499 500 501 500 499 498 496 494 493 492 492 491 491 490 488 487 487 488 488 488 488 487 483 480 481 485 491 495 497 498 498 497 496 495 493 493 492 492 491 491 490 489 488 486 484 483 481 479 478 476 475 474 473 472 472 472 471 470 469 467 466 465 463 460 456 453 455 460 462 461 459 455 452 449 447 445 444 443 442 441 441 441 441 443 444 446 447 447 446 446 446 446 446 445 445 445 446 447 448 448 449 450 451 451 451 451 450 448 447 445 444 443 442 442 443 444 444 443 443 443 444 444 444 444 443 441 438 434 431 428 426 426 428 431 433 435 437 439 440 441 441 440 439 437 435 433 431 431 432 432 432 432 431 430 429 427 425 423 422 420 419 418 418 418 420 422 424 425 425 425 424 425 427 428 430 432 434 434 434 433 432 432 434 435 435 436 436 436 438 439 440 441 442 443 444 444 445 445 445 445 444 443 441 439 437 434 431 429 427 426 424 423 422 421 421 420 419 418 417 414 411 407 399 393 390 391 391 390 390 390 389 388 387 387 386 386 388 391 391 389 387 386 386 386 386 387 387 388 388 389 391 399 408 412 411 407 404 401 397 393 398 408 418 424 428 430 432 434 436 438 440 441 442 442 442 442 441 440 439 438 438 437 437 436 434 432 430 428 426 426 426 428 429 428 428 430 434 436 438 439 439 438 437 435 433 431 429 427 426 424 424 423 423 422 422 421 421 420 420 420 420 420 420 419 416 412 405 393 381 371 367 360 347 331 313 300 295 299 312 327 342 354 367 378 386 390 391 391 390 386 384 382 380 377 372 367 364 363 365 366 366 366 366 366 366 365 364 363 362 361 361 362 362 361 360 358 356 353 351 348 345 340 336 334 332 331 332 334 336 339 343 351 361 371 377 381 384 387 390 391 392 393 395 398 399 397 393 386 380 374 369 367 365 364 365 366 367 372 379 383 382 371 351 328 316 320 341 371 400 418 429 433 434 434 433 430 429 429 430 431 432 435 440 444 446 447 447 448 448 448 448 448 448 447 446 444 442 441 439 437 435 433 432 431 431 432 434 435 437 439 441 443 444 446 447 447 447 448 448 448 448 447 447 447 446 445 444 443 441 440 438 435 432 429
502 500 498 497 499 502 505 507 506 505 503 501 498 496 494 493 493 492 492 491 489 489 490 492 492 492 492 491 487 483 483 487 492 495 498 499 499 498 497 496 495 494 493 493 493 493 492 490 489 487 486 484 482 481 479 478 476 475 473 473 472 472 471 469 468 466 466 465 463 461 457 454 456 460 463 462 461 457 454 451 449 448 447 445 443 442 441 441 441 442 442 443 443 444 444 444 444 445 445 444 444 444 445 446 447 448 449 450 450 451 451 451 451 449 447 445 444 442 441 441 441 442 442 442 442 443 443 443 443 442 442 440 438 435 431 428 426 425 426 427 429 431 432 433 435 436 437 437 436 435 433 430 429 429 430 430 431 431 430 429 428 426 425 423 422 420 419 418 417 417 418 420 422 424 424 424 423 424 425 426 428 430 431 432 432 431 430 431 433 434 434 434 434 435 436 438 439 440 441 442 443 444 444 445 445 445 444 443 441 439 437 434 431 429 427 424 423 421 420 419 418 417 417 416 415 413 411 407 401 397 394 392 391 390 391 391 391 390 389 388 387 387 386 387 386 386 386 386 386 387 387 387 388 390 395 398 402 409 417 421 421 419 416 412 406 400 400 407 416 422 425 427 429 432 435 438 440 441 442 442 442 442 441 440 439 439 438 438 437 436 435 433 431 430 429 430 431 433 434 432 430 431 433 435 438 439 440 439 438 436 435 433 431 429 427 426 425 424 423 422 421 420 420 419 418 419 419 419 419 419 417 414 408 400 391 385 381 375 364 349 333 316 302 296 301 312 324 338 353 365 374 380 384 387 387 386 384 383 381 378 374 368 364 361 362 363 364 364 364 364 364 364 363 362 361 360 360 360 361 360 359 358 355 353 350 347 344 340 336 333 330 329 329 331 334 338 344 353 365 376 384 387 389 391 392 393 394 395 397 399 400 400 398 395 390 385 381 378 375 374 375 374 372 374 377 381 382 379 365 341 320 318 337 368 398 417 428 432 432 431 430 427 425 424 425 426 429 434 439 442 444 445 446 446 447 447 447 447 447 446 445 443 442 440 438 437 435 433 431 430 431 432 433 435 437 439 441 442 444 445 445 446 446 447 447 447 447 446 446 445 445 445 444 443 441 440 438 436 433 430
503 501 499 499 502 506 510 512 512 510 509 506 502 499 497 495 494 494 493 492 491 491 494 496 496 496 495 494 490 487 485 487 491 495 497 498 499 499 498 497 496 495 495 495 495 494 493 492 490 488 487 485 483 481 480 478 477 475 474 474 473 472 470 469 467 465 464 463 462 460 458 455 456 459 462 462 461 458 455 453 451 450 449 447 445 442 441 441 442 442 441 441 441 441 441 441 442 442 443 442 442 443 445 446 447 447 448 449 450 450 451 451 451 450 449 447 445 442 440 440 440 441 441 441 441 442 442 442 442 441 441 439 438 435 432 428 426 425 424 425 426 427 428 429 430 431 432 433 433 432 430 428 427 427 428 428 429 429 429 428 427 426 424 423 422 420 419 417 416 416 416 418 420 422 422 422 422 422 423 424 426 428 429 430 430 429 429 430 432 433 433 433 433 433 434 436 437 438 440 441 442 444 444 445 445 444 444 443 441 440 437 435 432 430 427 424 422 421 420 419 418 417 415 413 412 411 409 405 402 402 401 396 392 390 390 392 393 392 390 389 388 387 386 386 386 386 386 386 386 387 388 391 395 400 406 412 416 419 423 425 426 425 423 419 413 408 406 407 412 416 420 424 428 432 435 437 439 441 442 443 443 442 442 441 440 440 439 439 438 437 436 435 433 432 433 434 435 436 436 435 434 433 434 436 438 440 440 440 439 437 436 434 432 430 428 427 425 424 423 422 421 420 419 418 417 417 417 417 417 418 417 415 411 406 401 396 391 385 375 363 351 337 321 307 300 300 307 321 338 350 359 366 374 380 383 383 383 382 381 379 375 370 364 360 359 360 361 361 361 362 362 362 362 361 360 359 359 359 360 360 359 357 355 353 350 347 344 341 338 334 330 328 328 329 332 337 344 353 367 380 389 394 396 396 397 397 397 398 399 401 401 401 400 399 397 394 392 390 387 385 385 383 380 378 379 379 380 378 368 345 323 317 337 368 396 416 427 431 430 429 427 424 420 419 420 424 429 433 438 440 442 443 444 445 446 446 446 446 446 445 444 443 441 439 438 436 434 432 430 429 430 431 433 434 436 438 439 441 442 443 444 445 445 446 446 446 446 445 445 444 444 443 443 443 442 440 438 436 434 432
505 502 501 501 504 509 513 516 516 515 513 510 506 503 501 499 497 496 495 494 493 494 497 499 500 499 497 495 493 490 487 487 490 493 495 497 498 498 498 498 497 497 496 496 496 495 494 493 491 489 487 485 484 482 481 479 478 476 476 475 474 473 471 469 467 465 464 462 460 458 456 456 456 458 461 462 461 459 457 455 453 452 450 448 446 443 441 441 442 442 442 442 441 440 440 439 439 439 440 440 440 442 444 445 446 447 447 448 449 449 450 450 450 450 449 448 445 443 440 439 438 439 440 440 440 441 441 441 441 441 440 439 437 435 432 429 427 425 424 423 423 424 425 425 426 427 428 428 429 429 427 426 424 424 425 425 426 427 427 427 427 426 424 423 422 420 419 417 416 415 415 416 417 418 419 420 420 420 421 422 425 426 428 428 428 428 428 429 431 432 432 432 432 432 432 433 435 436 438 439 441 443 444 444 444 444 444 443 441 440 438 435 433 430 427 425 422 421 420 420 419 418 415 413 412 410 408 406 405 407 407 403 398 394 394 394 394 392 390 388 387 386 386 386 386 386 386 386 386 387 390 398 407 413 418 423 426 427 428 428 429 429 427 424 420 416 413 411 410 411 416 423 427 431 434 436 438 440 442 443 443 443 443 442 442 441 441 440 439 439 437 436 435 435 436 437 438 439 438 437 436 436 437 438 439 440 441 440 439 438 436 435 433 431 429 427 426 424 423 422 421 420 419 418 416 415 415 415 415 416 416 416 414 411 407 402 396 390 382 374 364 354 342 328 313 301 297 306 321 334 343 351 360 368 374 377 380 380 379 377 374 370 364 359 356 357 358 358 359 359 360 361 361 361 360 359 358 358 358 359 358 357 355 353 350 348 346 344 341 337 332 328 327 328 331 336 343 353 367 381 392 398 401 401 401 401 401 401 402 402 402 402 401 401 400 400 399 397 396 394 393 390 387 385 383 381 378 373 361 339 320 319 340 369 394 414 425 429 428 427 423 419 415 414 418 424 429 434 437 439 440 442 444 445 445 445 445 444 444 444 443 443 441 439 437 435 433 431 429 428 429 430 431 433 435 436 438 439 440 442 443 443 444 444 445 445 445 444 444 443 443 442 442 442 441 440 439 437 435 432
507 504 503 504 507 511 514 517 518 518 516 514 511 508 506 504 501 498 496 495 495 496 499 502 503 502 499 497 494 492 489 488 490 492 494 495 497 498 499 499 499 498 498 497 497 497 495 494 492 490 488 486 484 483 481 480 479 478 477 477 476 475 473 471 469 467 465 462 459 457 456 455 456 458 460 461 461 460 459 457 455 453 451 449 447 444 442 442 443 444 445 445 445 444 442 440 438 437 437 437 439 441 443 444 445 445 446 446 447 448 449 449 450 450 450 448 446 443 441 439 437 437 437 438 438 439 440 441 441 440 440 438 437 435 432 429 427 425 424 423 422 422 423 423 423 424 424 425 425 425 424 423 422 422 422 423 424 425 426 427 427 426 425 423 422 420 419 417 416 415 415 415 415 416 416 417 418 418 419 421 423 425 427 427 427 426 426 428 430 431 431 431 431 430 431 431 432 434 435 437 439 441 443 443 443 443 442 442 441 439 438 435 433 430 427 424 422 420 420 420 420 419 417 415 413 411 410 409 410 410 410 408 405 402 400 399 395 392 389 388 386 386 385 385 386 386 386 386 387 388 394 405 416 421 425 428 429 430 430 431 431 431 430 428 426 423 421 417 414 412 414 421 426 429 432 434 437 440 442 443 444 444 444 444 443 443 442 442 441 440 439 438 437 438 439 440 441 441 440 439 438 438 439 439 440 441 441 441 440 438 437 435 433 431 429 427 426 424 423 421 420 419 418 417 416 415 413 413 413 414 414 414 414 412 410 405 400 394 388 381 374 366 357 346 330 314 300 298 306 317 326 336 345 353 360 367 372 375 375 373 371 367 362 357 354 355 356 356 356 357 358 359 359 359 359 358 358 357 357 357 357 356 355 353 351 350 349 347 344 340 334 329 326 326 330 335 344 354 368 381 391 398 403 404 404 404 404 403 403 403 403 403 402 402 401 401 401 400 399 398 395 393 392 390 387 383 378 370 354 332 316 322 344 370 393 412 423 427 426 423 418 412 409 410 417 424 430 434 436 438 439 441 443 444 444 444 444 443 442 441 442 442 441 439 438 435 433 431 429 428 427 428 430 431 433 434 436 437 438 440 441 441 442 443 443 443 443 443 443 442 441 441 442 441 441 440 439 437 435 433
508 506 505 507 510 513 516 518 519 520 519 517 515 512 510 507 504 500 498 496 496 498 502 505 506 504 501 498 496 493 491 490 490 491 493 494 496 498 500 500 500 500 499 499 499 498 496 494 492 490 489 487 486 484 483 482 480 480 479 478 478 476 475 473 471 470 467 464 461 458 456 455 456 459 461 461 461 461 460 458 457 455 453 450 447 445 444 445 447 448 449 450 450 448 445 441 438 436 435 436 437 440 441 442 443 443 444 444 445 446 447 448 448 449 449 448 446 444 441 439 437 436 435 435 435 437 439 440 440 440 439 438 437 435 432 430 428 426 424 423 422 422 421 421 421 421 422 422 422 422 422 421 421 420 420 420 422 423 424 425 426 426 425 424 423 421 419 417 416 415 414 415 415 414 415 415 416 417 418 420 422 424 425 426 426 425 425 427 429 431 431 430 430 429 429 430 430 432 433 435 437 439 440 441 441 441 440 440 439 438 437 435 433 430 427 424 420 418 417 418 418 418 417 416 415 413 412 412 411 411 410 409 408 407 405 403 397 392 389 387 386 386 386 387 389 390 391 392 394 396 402 411 419 424 428 430 430 431 431 432 433 433 433 432 430 428 426 423 420 416 415 418 422 426 430 433 436 440 442 444 445 445 445 445 445 444 444 443 443 442 440 440 439 440 441 443 443 443 442 441 440 440 440 441 442 442 442 441 440 438 437 435 433 431 429 427 426 424 422 421 419 418 418 417 416 414 413 411 411 412 412 412 412 412 410 407 403 398 392 387 382 376 368 358 346 330 313 300 296 301 310 320 330 338 346 354 362 367 368 368 365 362 359 354 351 352 353 353 353 354 356 357 358 358 358 357 357 356 356 356 356 356 354 353 352 351 350 348 345 341 337 331 327 326 329 335 343 355 367 379 389 397 403 406 407 406 405 405 404 404 404 403 402 401 401 401 400 400 399 396 394 392 393 392 389 384 378 368 349 327 315 325 347 372 392 409 419 423 421 417 412 406 404 408 416 423 429 433 435 437 439 440 441 442 442 442 443 442 441 439 440 440 440 439 438 436 434 432 430 428 426 426 427 428 429 431 433 435 436 437 438 439 440 441 441 441 442 442 441 441 440 440 441 441 440 439 438 436 434 432
509 508 508 510 513 516 518 519 520 520 520 519 518 515 513 509 505 501 498 496 497 500 504 507 508 506 503 500 497 495 493 492 491 491 492 494 496 498 500 501 501 501 501 501 500 499 497 495 494 492 490 489 488 486 485 484 483 482 482 481 479 478 476 474 473 471 469 466 463 460 458 457 458 460 461 461 461 461 460 459 458 456 453 450 447 445 446 448 451 453 455 455 454 451 448 444 440 437 435 435 436 438 439 440 440 441 441 442 443 444 445 446 447 447 447 447 445 444 442 440 438 436 434 432 432 434 436 438 438 438 438 437 436 435 432 430 428 426 425 424 423 422 421 420 420 420 420 420 420 420 419 419 419 418 418 418 419 421 422 424 424 425 425 424 423 421 419 417 416 415 414 414 415 414 414 414 415 415 417 419 421 423 424 424 424 424 425 427 429 430 430 430 429 429 428 429 429 430 431 433 435 436 437 438 438 438 438 437 436 435 435 433 432 430 427 423 419 416 414 415 416 416 416 415 414 413 412 411 410 409 407 405 404 404 404 403 399 392 387 386 386 386 386 389 394 398 401 404 406 408 411 416 421 425 428 430 431 431 432 433 433 434 434 434 433 432 430 428 425 421 418 417 419 423 428 432 436 440 443 444 445 446 446 446 446 446 445 445 444 443 442 441 441 442 443 444 444 444 443 442 442 442 442 442 443 443 443 442 440 439 437 435 433 431 429 427 426 424 422 420 418 417 417 416 415 414 412 410 409 409 409 410 410 410 409 408 405 401 397 393 389 384 377 368 358 346 329 310 298 295 298 305 314 324 333 342 350 357 360 361 360 358 354 350 348 349 351 351 350 351 352 354 355 356 356 356 355 355 355 355 356 355 355 354 353 352 351 349 346 342 338 333 328 325 327 333 343 354 366 377 387 396 403 407 408 407 406 406 405 405 404 402 400 399 399 399 399 399 397 393 390 389 390 390 387 383 376 365 344 323 314 328 350 372 389 403 413 416 414 410 405 400 401 407 415 422 427 432 434 436 437 439 440 440 440 440 441 440 439 438 437 438 438 438 438 437 435 433 431 428 426 425 424 424 425 427 430 432 433 434 435 436 437 438 439 440 440 440 440 440 439 439 439 439 439 439 437 435 434 432
511 509 510 512 515 517 519 520 520 521 521 520 519 517 514 510 506 502 498 496 497 501 507 510 510 507 504 502 499 497 495 494 493 492 493 494 495 498 500 502 503 503 503 502 501 500 498 497 495 493 492 492 491 490 489 487 486 486 485 484 482 480 478 476 474 472 469 466 462 460 459 459 460 461 462 462 462 462 461 460 458 456 453 450 447 447 449 452 455 458 459 459 457 455 451 447 443 439 436 435 435 436 437 437 437 438 438 438 439 441 442 444 444 445 445 444 444 443 441 440 438 436 434 432 431 431 433 434 436 436 437 436 435 434 432 430 428 427 426 425 423 422 421 420 420 419 419 419 418 418 418 417 417 417 417 417 418 419 420 421 422 423 424 424 423 421 419 417 415 414 414 414 414 414 414 413 414 415 416 418 420 421 422 422 422 422 424 426 428 430 430 429 428 428 428 428 428 429 430 431 433 434 434 435 435 435 435 434 433 432 431 431 430 428 426 423 418 414 411 411 412 413 412 412 412 411 411 409 408 405 401 398 396 396 397 398 396 391 386 385 386 386 386 391 399 406 410 414 416 417 416 417 421 425 428 429 430 431 432 433 433 434 434 434 434 434 433 431 429 426 423 420 420 422 427 432 437 441 443 445 445 446 447 447 447 447 446 446 446 445 444 443 443 444 445 445 445 445 444 444 443 443 444 444 444 444 443 442 441 439 438 436 434 431 429 427 426 423 421 418 417 415 415 415 414 413 411 409 408 408 408 408 408 408 408 407 406 404 400 397 394 390 383 375 367 357 342 324 310 301 296 295 301 310 321 330 339 347 351 353 354 353 350 345 344 346 349 349 348 347 348 351 353 355 355 355 354 354 354 354 355 355 355 354 353 352 350 348 345 342 338 333 328 325 326 333 343 355 366 376 386 394 401 405 408 407 406 406 405 405 403 401 399 396 395 395 395 395 394 390 385 383 384 384 383 380 373 361 339 318 313 329 352 370 384 396 405 408 406 402 397 395 398 406 414 420 426 430 432 434 435 436 437 438 438 438 439 439 438 436 435 435 436 436 437 436 436 434 432 430 427 424 422 422 423 424 426 428 430 432 432 433 434 436 438 438 439 439 439 439 438 437 437 437 437 437 436 435 433 431
512 511 512 514 516 518 519 520 520 521 521 521 520 517 514 510 506 502 499 497 498 504 510 512 512 509 506 504 501 499 497 496 495 494 493 494 495 497 500 502 503 504 504 503 502 501 499 498 497 496 495 495 495 494 493 492 491 490 489 487 485 483 480 477 475 472 469 465 461 460 460 461 462 462 463 463 463 462 461 460 458 455 452 450 449 449 452 456 459 461 462 461 460 457 454 451 447 443 439 437 435 434 434 434 433 433 433 434 435 437 439 440 441 442 442 441 441 440 440 439 438 437 435 433 432 430 430 431 432 433 434 434 434 433 432 431 429 428 427 426 424 423 422 420 419 419 419 418 418 417 417 416 416 416 416 416 416 417 418 418 419 421 422 423 423 422 420 417 416 414 414 414 414 414 413 413 414 415 416 418 419 419 420 420 420 421 424 426 428 429 429 429 428 428 427 427 428 429 429 430 432 432 433 433 433 433 432 431 429 428 427 427 427 426 425 422 418 413 409 407 408 408 409 409 408 408 408 407 405 400 395 390 389 389 389 391 392 389 387 386 386 386 386 391 400 407 412 414 416 416 415 415 418 422 426 428 429 430 431 432 433 433 434 434 434 434 433 432 431 429 427 425 422 423 427 433 437 440 443 445 446 446 447 448 448 448 447 447 447 446 445 445 445 446 446 446 446 445 445 445 445 445 445 445 445 445 444 443 442 440 438 436 434 432 430 428 426 424 421 418 415 413 413 413 412 411 409 408 407 406 406 405 405 406 407 406 406 405 402 399 397 393 388 380 373 365 352 339 326 315 304 296 295 300 308 318 328 337 342 345 346 347 344 340 339 342 346 346 345 344 346 348 351 353 353 353 353 353 353 354 354 354 354 354 352 351 349 347 344 342 338 334 328 325 325 331 341 353 363 373 381 389 396 402 405 406 406 405 405 404 403 401 398 394 392 390 390 390 389 386 381 377 376 377 377 375 368 355 333 313 310 327 350 366 377 388 397 402 399 393 389 390 397 406 413 420 425 427 428 430 432 433 435 436 436 437 437 437 436 434 433 433 434 434 435 435 435 434 433 431 428 425 422 421 421 422 423 425 428 430 431 431 432 434 436 437 438 438 438 437 437 436 436 435 435 435 434 433 432 430
